58.76800156 568.84600830 461.98800659 0.121569 0.466667 0.705882 1
58.78400040 568.78802490 461.95700073 0.121569 0.466667 0.705882 1
58.99000168 568.75000000 461.87701416 0.121569 0.466667 0.705882 1
58.77700043 568.90002441 461.98199463 0.121569 0.466667 0.705882 1
58.87500000 568.97100830 461.94900513 0.121569 0.466667 0.705882 1
58.79999924 568.77600098 461.96099854 0.121569 0.466667 0.705882 1
58.86600113 568.98101807 461.98901367 0.121569 0.466667 0.705882 1
58.86199951 568.98797607 461.96899414 0.121569 0.466667 0.705882 1
58.86500168 568.98699951 461.75299072 0.121569 0.466667 0.705882 1
58.83499908 568.95001221 461.93899536 0.121569 0.466667 0.705882 1
58.99599838 568.78997803 461.75698853 0.121569 0.466667 0.705882 1
59.90599823 568.43499756 461.10800171 0.121569 0.466667 0.705882 1
59.24700165 568.89697266 461.42199707 0.121569 0.466667 0.705882 1
58.80099869 568.92999268 461.97500610 0.121569 0.466667 0.705882 1
58.92800140 568.97198486 461.96600342 0.121569 0.466667 0.705882 1
59.37200165 568.93798828 461.19100952 0.121569 0.466667 0.705882 1
58.94499969 568.95599365 461.92800903 0.121569 0.466667 0.705882 1
58.93999863 568.95697021 461.88198853 0.121569 0.466667 0.705882 1
59.47700119 568.83300781 461.41598511 0.121569 0.466667 0.705882 1
59.77500153 568.96301270 461.17498779 0.121569 0.466667 0.705882 1
59.79100037 568.73400879 461.23199463 0.121569 0.466667 0.705882 1
59.46599960 568.85400391 461.28500366 0.121569 0.466667 0.705882 1
59.13299942 568.98400879 461.00698853 0.121569 0.466667 0.705882 1
59.29199982 568.79302979 461.42700195 0.121569 0.466667 0.705882 1
59.51100159 568.01501465 461.93301392 0.121569 0.466667 0.705882 1
59.76699829 568.75201416 461.39001465 0.121569 0.466667 0.705882 1
59.00000000 568.73999023 461.56698608 0.121569 0.466667 0.705882 1
59.00600052 568.76300049 461.70098877 0.121569 0.466667 0.705882 1
59.01599884 568.84802246 461.73098755 0.121569 0.466667 0.705882 1
58.83100128 568.95898438 461.98098755 0.121569 0.466667 0.705882 1
59.00299835 568.75402832 461.97299194 0.121569 0.466667 0.705882 1
59.01900101 568.91198730 461.96600342 0.121569 0.466667 0.705882 1
59.00500107 568.76300049 461.83700562 0.121569 0.466667 0.705882 1
59.17699814 568.89599609 461.83499146 0.121569 0.466667 0.705882 1
59.62599945 568.73101807 461.95800781 0.121569 0.466667 0.705882 1
59.48300171 568.84399414 461.23999023 0.121569 0.466667 0.705882 1
59.36700058 568.81201172 461.89401245 0.121569 0.466667 0.705882 1
59.64099884 568.52099609 461.98098755 0.121569 0.466667 0.705882 1
59.69599915 568.55499268 461.05300903 0.121569 0.466667 0.705882 1
58.75999832 568.85699463 461.89300537 0.121569 0.466667 0.705882 1
59.14300156 569.03399658 461.42898560 0.121569 0.466667 0.705882 1
59.00600052 568.86499023 461.75201416 0.121569 0.466667 0.705882 1
59.86199951 569.10601807 461.19299316 0.121569 0.466667 0.705882 1
59.77799988 569.03497314 461.22698975 0.121569 0.466667 0.705882 1
59.70199966 569.10900879 461.37399292 0.121569 0.466667 0.705882 1
59.96599960 568.93902588 461.75698853 0.121569 0.466667 0.705882 1
59.25000000 569.96002197 461.49499512 0.121569 0.466667 0.705882 1
59.43799973 568.81896973 461.34201050 0.121569 0.466667 0.705882 1
59.31499863 569.98699951 461.47198486 0.121569 0.466667 0.705882 1
59.13199997 568.87597656 461.92498779 0.121569 0.466667 0.705882 1
59.71099854 569.60699463 461.29699707 0.121569 0.466667 0.705882 1
59.37599945 569.98498535 461.47198486 0.121569 0.466667 0.705882 1
58.86399841 569.35498047 461.44900513 0.121569 0.466667 0.705882 1
59.44699860 569.47302246 461.58999634 0.121569 0.466667 0.705882 1
59.79800034 569.07397461 461.37298584 0.121569 0.466667 0.705882 1
59.20600128 569.29797363 461.51998901 0.121569 0.466667 0.705882 1
59.76699829 569.27301025 461.17599487 0.121569 0.466667 0.705882 1
59.32899857 569.99298096 461.47000122 0.121569 0.466667 0.705882 1
59.84500122 569.33599854 461.84100342 0.121569 0.466667 0.705882 1
59.00799942 568.76397705 461.76901245 0.121569 0.466667 0.705882 1
59.90800095 569.02099609 461.70098877 0.121569 0.466667 0.705882 1
59.65999985 569.03497314 461.35998535 0.121569 0.466667 0.705882 1
59.33800125 569.26800537 461.97299194 0.121569 0.466667 0.705882 1
59.46699905 569.51800537 461.56698608 0.121569 0.466667 0.705882 1
59.81499863 568.38098145 461.10998535 0.121569 0.466667 0.705882 1
59.81600189 569.45599365 461.88400269 0.121569 0.466667 0.705882 1
59.05899811 568.69702148 461.82400513 0.121569 0.466667 0.705882 1
59.47200012 569.50598145 461.60800171 0.121569 0.466667 0.705882 1
59.49800110 569.53497314 461.63198853 0.121569 0.466667 0.705882 1
59.65900040 569.12200928 461.79998779 0.121569 0.466667 0.705882 1
59.64099884 569.17102051 461.30499268 0.121569 0.466667 0.705882 1
59.79800034 569.11102295 461.26501465 0.121569 0.466667 0.705882 1
59.36100006 569.09899902 461.30801392 0.121569 0.466667 0.705882 1
59.87799835 569.39501953 461.86898804 0.121569 0.466667 0.705882 1
59.44699860 569.46301270 461.54501343 0.121569 0.466667 0.705882 1
59.37900162 570.05401611 461.43899536 0.121569 0.466667 0.705882 1
57.58300018 568.45898438 462.29400635 0.121569 0.466667 0.705882 1
57.70199966 568.43902588 462.38598633 0.121569 0.466667 0.705882 1
57.61399841 568.60302734 462.36199951 0.121569 0.466667 0.705882 1
57.69400024 568.38500977 462.66400146 0.121569 0.466667 0.705882 1
57.75999832 568.84802246 462.27398682 0.121569 0.466667 0.705882 1
57.42100143 569.12701416 462.24700928 0.121569 0.466667 0.705882 1
57.99700165 568.24102783 462.64199829 0.121569 0.466667 0.705882 1
57.75600052 568.72302246 462.23699951 0.121569 0.466667 0.705882 1
57.43299866 569.34497070 462.36700439 0.121569 0.466667 0.705882 1
57.96099854 568.25201416 462.64199829 0.121569 0.466667 0.705882 1
57.70399857 568.67401123 462.32699585 0.121569 0.466667 0.705882 1
57.81200027 568.30499268 462.58401489 0.121569 0.466667 0.705882 1
57.80599976 568.61901855 462.45001221 0.121569 0.466667 0.705882 1
57.97800064 569.17700195 462.24499512 0.121569 0.466667 0.705882 1
57.45700073 569.31402588 462.33999634 0.121569 0.466667 0.705882 1
57.69699860 569.27502441 462.36300659 0.121569 0.466667 0.705882 1
57.83300018 569.05902100 462.28601074 0.121569 0.466667 0.705882 1
57.47399902 569.39801025 462.37399292 0.121569 0.466667 0.705882 1
57.90399933 568.44000244 462.35198975 0.121569 0.466667 0.705882 1
57.50199890 569.31896973 462.39599609 0.121569 0.466667 0.705882 1
57.72399902 568.41302490 462.66598511 0.121569 0.466667 0.705882 1
57.65399933 569.43200684 462.52600098 0.121569 0.466667 0.705882 1
57.55400085 569.37701416 462.51501465 0.121569 0.466667 0.705882 1
57.78200150 569.27001953 462.40100098 0.121569 0.466667 0.705882 1
57.62500000 569.00598145 462.28201294 0.121569 0.466667 0.705882 1
57.95199966 569.21899414 462.93600464 0.121569 0.466667 0.705882 1
57.62300110 569.46697998 462.55300903 0.121569 0.466667 0.705882 1
57.64500046 569.27398682 462.35000610 0.121569 0.466667 0.705882 1
57.86600113 569.19500732 462.38900757 0.121569 0.466667 0.705882 1
57.99300003 569.22698975 462.93798828 0.121569 0.466667 0.705882 1
57.65499878 569.37902832 462.42800903 0.121569 0.466667 0.705882 1
58.22800064 568.24700928 462.42898560 0.121569 0.466667 0.705882 1
58.11199951 568.13299561 462.46701050 0.121569 0.466667 0.705882 1
57.59700012 569.26898193 462.33300781 0.121569 0.466667 0.705882 1
58.01100159 568.97698975 462.19500732 0.121569 0.466667 0.705882 1
58.24399948 568.13098145 462.33999634 0.121569 0.466667 0.705882 1
57.76800156 569.47802734 462.75601196 0.121569 0.466667 0.705882 1
58.28699875 568.30499268 462.38500977 0.121569 0.466667 0.705882 1
58.26800156 568.01702881 462.32901001 0.121569 0.466667 0.705882 1
58.25899887 568.27502441 462.42098999 0.121569 0.466667 0.705882 1
58.27299881 568.07098389 462.44799805 0.121569 0.466667 0.705882 1
58.71599960 568.41802979 462.17800903 0.121569 0.466667 0.705882 1
58.13399887 568.41601563 462.39700317 0.121569 0.466667 0.705882 1
58.20399857 568.21398926 462.43899536 0.121569 0.466667 0.705882 1
58.19300079 568.40802002 462.46701050 0.121569 0.466667 0.705882 1
58.28900146 568.48297119 462.37200928 0.121569 0.466667 0.705882 1
58.40299988 568.41601563 462.33499146 0.121569 0.466667 0.705882 1
58.38000107 568.38201904 462.37799072 0.121569 0.466667 0.705882 1
58.56200027 568.10998535 462.32501221 0.121569 0.466667 0.705882 1
58.97499847 568.08099365 462.06900024 0.121569 0.466667 0.705882 1
58.73400116 568.34600830 462.34600830 0.121569 0.466667 0.705882 1
58.43299866 568.44299316 462.33300781 0.121569 0.466667 0.705882 1
58.34799957 568.35601807 462.39001465 0.121569 0.466667 0.705882 1
58.93299866 568.00598145 462.39001465 0.121569 0.466667 0.705882 1
58.59500122 568.44201660 462.25100708 0.121569 0.466667 0.705882 1
58.77299881 568.36297607 462.34201050 0.121569 0.466667 0.705882 1
58.28200150 568.72900391 462.31201172 0.121569 0.466667 0.705882 1
57.52799988 569.28997803 462.32299805 0.121569 0.466667 0.705882 1
58.96799850 568.08599854 462.23699951 0.121569 0.466667 0.705882 1
58.93500137 568.06597900 462.31201172 0.121569 0.466667 0.705882 1
58.85400009 568.52697754 462.03698730 0.121569 0.466667 0.705882 1
58.32500076 568.50402832 462.33801270 0.121569 0.466667 0.705882 1
58.52600098 568.39801025 462.34399414 0.121569 0.466667 0.705882 1
58.19599915 568.88397217 462.43798828 0.121569 0.466667 0.705882 1
58.91299820 568.73999023 462.16500854 0.121569 0.466667 0.705882 1
58.86500168 568.56597900 462.18301392 0.121569 0.466667 0.705882 1
58.64300156 568.69799805 462.16299438 0.121569 0.466667 0.705882 1
58.89799881 568.59399414 462.10299683 0.121569 0.466667 0.705882 1
58.92900085 568.73297119 462.16500854 0.121569 0.466667 0.705882 1
58.79199982 568.76702881 462.07000732 0.121569 0.466667 0.705882 1
58.76100159 568.85400391 462.02899170 0.121569 0.466667 0.705882 1
58.78499985 568.77301025 462.02099609 0.121569 0.466667 0.705882 1
58.80699921 568.80200195 462.09399414 0.121569 0.466667 0.705882 1
58.83200073 569.20898438 463.10101318 0.121569 0.466667 0.705882 1
58.62799835 568.70501709 462.22698975 0.121569 0.466667 0.705882 1
58.80799866 568.98101807 462.01599121 0.121569 0.466667 0.705882 1
58.69400024 568.81097412 462.20999146 0.121569 0.466667 0.705882 1
58.80699921 568.78302002 462.06399536 0.121569 0.466667 0.705882 1
58.78699875 568.88397217 462.12200928 0.121569 0.466667 0.705882 1
58.82199860 568.75299072 462.11801147 0.121569 0.466667 0.705882 1
58.80500031 568.79901123 462.02600098 0.121569 0.466667 0.705882 1
58.29000092 568.60498047 462.43499756 0.121569 0.466667 0.705882 1
58.93099976 568.96997070 462.05599976 0.121569 0.466667 0.705882 1
58.86299896 568.74902344 462.10998535 0.121569 0.466667 0.705882 1
58.86899948 568.76702881 462.17700195 0.121569 0.466667 0.705882 1
58.47299957 568.51599121 462.32800293 0.121569 0.466667 0.705882 1
58.81800079 568.83300781 462.23300171 0.121569 0.466667 0.705882 1
58.85100174 568.98901367 462.07699585 0.121569 0.466667 0.705882 1
58.71300125 568.96002197 462.22601318 0.121569 0.466667 0.705882 1
58.76200104 568.91400146 462.15600586 0.121569 0.466667 0.705882 1
58.80099869 568.93298340 462.19799805 0.121569 0.466667 0.705882 1
58.76300049 568.91101074 462.24499512 0.121569 0.466667 0.705882 1
58.76499939 568.85198975 462.16598511 0.121569 0.466667 0.705882 1
58.83100128 568.95501709 462.20800781 0.121569 0.466667 0.705882 1
58.90800095 568.99298096 462.22299194 0.121569 0.466667 0.705882 1
58.99300003 568.74298096 462.37200928 0.121569 0.466667 0.705882 1
58.77600098 568.89599609 462.15899658 0.121569 0.466667 0.705882 1
58.76399994 568.79699707 462.28201294 0.121569 0.466667 0.705882 1
58.96799850 568.98602295 462.21899414 0.121569 0.466667 0.705882 1
58.76599884 568.84899902 462.25698853 0.121569 0.466667 0.705882 1
58.93600082 568.75598145 462.36898804 0.121569 0.466667 0.705882 1
58.79899979 568.81597900 462.31799316 0.121569 0.466667 0.705882 1
58.89699936 568.75598145 462.26098633 0.121569 0.466667 0.705882 1
58.81299973 568.91497803 462.25201416 0.121569 0.466667 0.705882 1
58.93999863 568.76898193 462.24899292 0.121569 0.466667 0.705882 1
58.79499817 568.89300537 462.27600098 0.121569 0.466667 0.705882 1
58.81399918 568.91497803 462.29598999 0.121569 0.466667 0.705882 1
58.81700134 568.91400146 462.34201050 0.121569 0.466667 0.705882 1
58.57199860 568.64398193 462.26901245 0.121569 0.466667 0.705882 1
58.91899872 568.98297119 462.00299072 0.121569 0.466667 0.705882 1
58.58700180 568.92700195 462.28799438 0.121569 0.466667 0.705882 1
58.88100052 568.76599121 462.35998535 0.121569 0.466667 0.705882 1
58.76399994 568.91101074 462.19799805 0.121569 0.466667 0.705882 1
58.95899963 568.99700928 462.30599976 0.121569 0.466667 0.705882 1
58.80099869 568.87200928 462.39999390 0.121569 0.466667 0.705882 1
58.80599976 568.80798340 462.41400146 0.121569 0.466667 0.705882 1
58.80400085 568.86901855 462.44699097 0.121569 0.466667 0.705882 1
58.87900162 568.80798340 462.44699097 0.121569 0.466667 0.705882 1
58.78900146 568.88397217 462.30099487 0.121569 0.466667 0.705882 1
58.95999908 568.99401855 462.35000610 0.121569 0.466667 0.705882 1
58.90999985 568.99298096 462.35998535 0.121569 0.466667 0.705882 1
58.98199844 568.97497559 462.27099609 0.121569 0.466667 0.705882 1
58.90700150 568.99102783 462.31298828 0.121569 0.466667 0.705882 1
58.83000183 568.88598633 462.48901367 0.121569 0.466667 0.705882 1
58.82099915 568.90899658 462.48001099 0.121569 0.466667 0.705882 1
58.79299927 568.87902832 462.35101318 0.121569 0.466667 0.705882 1
58.86000061 568.98699951 462.48098755 0.121569 0.466667 0.705882 1
58.84500122 568.96301270 462.49600220 0.121569 0.466667 0.705882 1
58.86000061 568.98297119 462.43499756 0.121569 0.466667 0.705882 1
58.87400055 568.97100830 462.39599609 0.121569 0.466667 0.705882 1
58.83399963 568.95599365 462.25201416 0.121569 0.466667 0.705882 1
58.98600006 568.99597168 462.26800537 0.121569 0.466667 0.705882 1
58.81399918 568.89099121 462.38101196 0.121569 0.466667 0.705882 1
58.10699844 568.32702637 462.52301025 0.121569 0.466667 0.705882 1
58.34700012 568.28900146 462.51599121 0.121569 0.466667 0.705882 1
58.09600067 568.34100342 462.55999756 0.121569 0.466667 0.705882 1
58.81700134 568.91400146 462.38900757 0.121569 0.466667 0.705882 1
58.84000015 568.94500732 462.48199463 0.121569 0.466667 0.705882 1
58.79700089 568.09399414 462.58300781 0.121569 0.466667 0.705882 1
58.48899841 568.98498535 462.66500854 0.121569 0.466667 0.705882 1
58.85499954 568.98999023 462.52301025 0.121569 0.466667 0.705882 1
58.08399963 568.17102051 462.58801270 0.121569 0.466667 0.705882 1
58.44100189 568.89801025 462.52899170 0.121569 0.466667 0.705882 1
58.83900070 568.83197021 462.55499268 0.121569 0.466667 0.705882 1
58.13999939 568.34698486 462.51400757 0.121569 0.466667 0.705882 1
58.44300079 568.84802246 462.58898926 0.121569 0.466667 0.705882 1
58.82099915 568.84899902 462.50100708 0.121569 0.466667 0.705882 1
58.74399948 568.05999756 462.52700806 0.121569 0.466667 0.705882 1
58.94200134 568.78497314 462.50201416 0.121569 0.466667 0.705882 1
58.90399933 568.99499512 462.40399170 0.121569 0.466667 0.705882 1
58.85200119 568.82000732 462.60900879 0.121569 0.466667 0.705882 1
58.90399933 568.99700928 462.44601440 0.121569 0.466667 0.705882 1
58.81100082 568.07897949 462.54299927 0.121569 0.466667 0.705882 1
58.82899857 568.90301514 462.57501221 0.121569 0.466667 0.705882 1
58.18899918 568.95300293 462.53900146 0.121569 0.466667 0.705882 1
58.83100128 568.95898438 462.56698608 0.121569 0.466667 0.705882 1
58.89300156 568.87298584 462.64801025 0.121569 0.466667 0.705882 1
58.09099960 568.36199951 462.52600098 0.121569 0.466667 0.705882 1
58.83200073 568.95397949 462.52301025 0.121569 0.466667 0.705882 1
58.81499863 568.97497559 462.60299683 0.121569 0.466667 0.705882 1
58.86000061 568.86798096 462.68499756 0.121569 0.466667 0.705882 1
58.84299850 568.96002197 462.56600952 0.121569 0.466667 0.705882 1
58.56000137 568.66101074 462.89801025 0.121569 0.466667 0.705882 1
58.88299942 568.84497070 462.74301147 0.121569 0.466667 0.705882 1
58.94200134 568.79302979 462.63800049 0.121569 0.466667 0.705882 1
58.55099869 568.59698486 462.91000366 0.121569 0.466667 0.705882 1
58.68500137 568.94702148 462.87600708 0.121569 0.466667 0.705882 1
58.84000015 568.99298096 462.61300659 0.121569 0.466667 0.705882 1
58.88399887 568.83197021 462.58401489 0.121569 0.466667 0.705882 1
58.82400131 568.96301270 462.70098877 0.121569 0.466667 0.705882 1
58.88700104 568.89599609 462.82800293 0.121569 0.466667 0.705882 1
58.91899872 568.97399902 462.82101440 0.121569 0.466667 0.705882 1
58.89599991 568.87298584 462.80398560 0.121569 0.466667 0.705882 1
58.94499969 568.79602051 462.70401001 0.121569 0.466667 0.705882 1
58.84299850 568.88800049 462.62899780 0.121569 0.466667 0.705882 1
58.93700027 568.78698730 462.91101074 0.121569 0.466667 0.705882 1
58.90100098 568.94000244 462.82299805 0.121569 0.466667 0.705882 1
58.70700073 568.96997070 462.85000610 0.121569 0.466667 0.705882 1
58.91799927 568.80902100 462.85598755 0.121569 0.466667 0.705882 1
58.87599945 568.91198730 462.77499390 0.121569 0.466667 0.705882 1
58.93099976 568.96899414 462.87399292 0.121569 0.466667 0.705882 1
58.91500092 568.86999512 462.91000366 0.121569 0.466667 0.705882 1
58.88899994 568.95501709 462.77099609 0.121569 0.466667 0.705882 1
58.94100189 568.96099854 462.97000122 0.121569 0.466667 0.705882 1
58.99200058 568.18499756 462.86801147 0.121569 0.466667 0.705882 1
58.96400070 568.99298096 462.94699097 0.121569 0.466667 0.705882 1
58.90700150 568.87701416 462.88400269 0.121569 0.466667 0.705882 1
59.45100021 568.35198975 462.32400513 0.121569 0.466667 0.705882 1
59.25500107 568.08300781 462.26400757 0.121569 0.466667 0.705882 1
58.97000122 568.98602295 462.99700928 0.121569 0.466667 0.705882 1
59.00600052 568.79602051 462.06298828 0.121569 0.466667 0.705882 1
58.84799957 568.98498535 462.63299561 0.121569 0.466667 0.705882 1
58.94900131 568.81298828 462.90701294 0.121569 0.466667 0.705882 1
59.13100052 568.29199219 462.40798950 0.121569 0.466667 0.705882 1
59.05899811 568.87097168 462.08898926 0.121569 0.466667 0.705882 1
59.41600037 568.44702148 462.04098511 0.121569 0.466667 0.705882 1
59.03200150 568.87597656 462.04998779 0.121569 0.466667 0.705882 1
58.81499863 568.97302246 462.64999390 0.121569 0.466667 0.705882 1
59.42499924 568.82202148 462.03201294 0.121569 0.466667 0.705882 1
59.01699829 568.78002930 462.16000366 0.121569 0.466667 0.705882 1
59.04399872 568.95001221 462.28201294 0.121569 0.466667 0.705882 1
59.07300186 568.86102295 462.35900879 0.121569 0.466667 0.705882 1
58.92200089 568.91900635 462.97500610 0.121569 0.466667 0.705882 1
59.11899948 568.29101563 462.45599365 0.121569 0.466667 0.705882 1
59.08700180 568.89801025 462.48999023 0.121569 0.466667 0.705882 1
59.00899887 568.53399658 462.45901489 0.121569 0.466667 0.705882 1
59.02000046 568.77697754 462.35598755 0.121569 0.466667 0.705882 1
59.00199890 568.47998047 462.46301270 0.121569 0.466667 0.705882 1
59.03300095 568.97497559 462.42098999 0.121569 0.466667 0.705882 1
59.09000015 568.82897949 462.49700928 0.121569 0.466667 0.705882 1
59.01900101 568.99200439 462.45901489 0.121569 0.466667 0.705882 1
59.08499908 568.96502686 462.49899292 0.121569 0.466667 0.705882 1
59.00899887 568.77899170 462.37799072 0.121569 0.466667 0.705882 1
59.00299835 568.75402832 462.11099243 0.121569 0.466667 0.705882 1
59.04700089 568.88098145 462.27301025 0.121569 0.466667 0.705882 1
59.20500183 568.07202148 462.67498779 0.121569 0.466667 0.705882 1
59.68899918 568.42498779 462.10598755 0.121569 0.466667 0.705882 1
59.19699860 568.09002686 462.76199341 0.121569 0.466667 0.705882 1
59.07099915 568.34100342 462.75698853 0.121569 0.466667 0.705882 1
59.17499924 568.16900635 462.73901367 0.121569 0.466667 0.705882 1
59.32699966 568.09802246 462.72299194 0.121569 0.466667 0.705882 1
58.96500015 568.99298096 462.89999390 0.121569 0.466667 0.705882 1
59.01300049 568.50299072 462.37100220 0.121569 0.466667 0.705882 1
59.10100174 568.96697998 462.61700439 0.121569 0.466667 0.705882 1
59.00799942 568.76898193 462.65100098 0.121569 0.466667 0.705882 1
59.18700027 568.09399414 462.75698853 0.121569 0.466667 0.705882 1
59.19900131 568.32800293 462.65100098 0.121569 0.466667 0.705882 1
59.11999893 568.83898926 462.70901489 0.121569 0.466667 0.705882 1
59.02600098 568.77197266 462.74798584 0.121569 0.466667 0.705882 1
59.26100159 568.31896973 462.70498657 0.121569 0.466667 0.705882 1
59.08800125 568.81097412 462.56500244 0.121569 0.466667 0.705882 1
59.04399872 568.81097412 462.59100342 0.121569 0.466667 0.705882 1
59.08599854 568.96502686 462.57400513 0.121569 0.466667 0.705882 1
59.10499954 568.97198486 462.64401245 0.121569 0.466667 0.705882 1
59.27000046 568.42602539 462.71899414 0.121569 0.466667 0.705882 1
59.22100067 568.78399658 462.71899414 0.121569 0.466667 0.705882 1
59.16600037 568.84399414 462.85400391 0.121569 0.466667 0.705882 1
59.00799942 568.76599121 462.71798706 0.121569 0.466667 0.705882 1
59.12300110 568.90997314 462.62899780 0.121569 0.466667 0.705882 1
59.25400162 568.08898926 462.71798706 0.121569 0.466667 0.705882 1
59.13899994 568.91802979 462.69900513 0.121569 0.466667 0.705882 1
59.01900101 568.78002930 462.55300903 0.121569 0.466667 0.705882 1
59.07799911 568.77001953 462.97299194 0.121569 0.466667 0.705882 1
59.01100159 568.78802490 462.51501465 0.121569 0.466667 0.705882 1
59.16099930 568.82299805 462.98999023 0.121569 0.466667 0.705882 1
59.00699997 568.76501465 462.98699951 0.121569 0.466667 0.705882 1
59.11800003 568.81896973 462.65399170 0.121569 0.466667 0.705882 1
58.05099869 569.16101074 462.27499390 0.121569 0.466667 0.705882 1
58.23099899 569.13598633 462.32299805 0.121569 0.466667 0.705882 1
59.11800003 568.97998047 462.87298584 0.121569 0.466667 0.705882 1
58.32699966 569.14398193 462.25299072 0.121569 0.466667 0.705882 1
59.12099838 568.82000732 462.94900513 0.121569 0.466667 0.705882 1
59.14300156 568.92999268 462.81100464 0.121569 0.466667 0.705882 1
58.04600143 569.16601563 462.39199829 0.121569 0.466667 0.705882 1
59.14099884 568.91699219 462.85900879 0.121569 0.466667 0.705882 1
58.52099991 569.07202148 462.22299194 0.121569 0.466667 0.705882 1
58.60499954 569.02398682 462.26199341 0.121569 0.466667 0.705882 1
58.43899918 569.13299561 462.30599976 0.121569 0.466667 0.705882 1
59.00899887 568.77899170 462.78500366 0.121569 0.466667 0.705882 1
58.95399857 569.00201416 462.39099121 0.121569 0.466667 0.705882 1
58.24800110 569.23699951 462.38800049 0.121569 0.466667 0.705882 1
58.66699982 569.00897217 462.23001099 0.121569 0.466667 0.705882 1
59.03499985 568.76397705 462.94500732 0.121569 0.466667 0.705882 1
58.89699936 569.00299072 462.48901367 0.121569 0.466667 0.705882 1
58.12699890 569.13598633 462.33700562 0.121569 0.466667 0.705882 1
58.22100067 569.20800781 462.83700562 0.121569 0.466667 0.705882 1
58.94400024 569.01300049 462.47900391 0.121569 0.466667 0.705882 1
58.10200119 569.39300537 462.74798584 0.121569 0.466667 0.705882 1
59.07699966 568.77301025 462.83898926 0.121569 0.466667 0.705882 1
58.84999847 569.05401611 462.59799194 0.121569 0.466667 0.705882 1
58.91199875 569.03601074 462.44299316 0.121569 0.466667 0.705882 1
58.49399948 569.08197021 462.31698608 0.121569 0.466667 0.705882 1
58.33200073 569.17700195 462.79998779 0.121569 0.466667 0.705882 1
58.37900162 569.15002441 462.84500122 0.121569 0.466667 0.705882 1
58.99399948 569.01702881 462.53399658 0.121569 0.466667 0.705882 1
58.93600082 569.04400635 462.51000977 0.121569 0.466667 0.705882 1
58.21400070 569.38598633 462.78399658 0.121569 0.466667 0.705882 1
58.30599976 569.17199707 462.91699219 0.121569 0.466667 0.705882 1
58.93399811 569.02099609 462.51800537 0.121569 0.466667 0.705882 1
58.22900009 569.48199463 462.79501343 0.121569 0.466667 0.705882 1
58.87799835 569.02398682 462.57101440 0.121569 0.466667 0.705882 1
58.31100082 569.16900635 462.96200562 0.121569 0.466667 0.705882 1
58.92800140 569.02801514 462.56201172 0.121569 0.466667 0.705882 1
58.98899841 569.02398682 462.62399292 0.121569 0.466667 0.705882 1
58.99000168 569.02301025 462.57699585 0.121569 0.466667 0.705882 1
59.08000183 568.77899170 462.76901245 0.121569 0.466667 0.705882 1
58.42300034 569.10302734 462.33200073 0.121569 0.466667 0.705882 1
58.87500000 569.08697510 462.62298584 0.121569 0.466667 0.705882 1
58.97700119 569.06201172 462.64599609 0.121569 0.466667 0.705882 1
58.88499832 569.01397705 462.52801514 0.121569 0.466667 0.705882 1
58.91199875 569.04602051 462.59899902 0.121569 0.466667 0.705882 1
58.95500183 569.05200195 462.57598877 0.121569 0.466667 0.705882 1
58.83000183 569.07299805 462.63598633 0.121569 0.466667 0.705882 1
58.93500137 569.08197021 462.68499756 0.121569 0.466667 0.705882 1
58.88199997 569.01898193 462.70800781 0.121569 0.466667 0.705882 1
58.87099838 569.09002686 462.66500854 0.121569 0.466667 0.705882 1
58.54499817 569.14501953 462.93798828 0.121569 0.466667 0.705882 1
58.91699982 569.10699463 462.65600586 0.121569 0.466667 0.705882 1
58.83700180 569.00701904 462.55999756 0.121569 0.466667 0.705882 1
58.81000137 569.03802490 462.63598633 0.121569 0.466667 0.705882 1
58.53300095 569.04199219 462.88000488 0.121569 0.466667 0.705882 1
58.99399948 569.01800537 462.67199707 0.121569 0.466667 0.705882 1
58.51900101 569.11401367 462.89099121 0.121569 0.466667 0.705882 1
58.82899857 569.01898193 462.59799194 0.121569 0.466667 0.705882 1
58.61600113 569.24298096 462.98199463 0.121569 0.466667 0.705882 1
58.87900162 569.02398682 462.75201416 0.121569 0.466667 0.705882 1
58.88899994 569.09600830 462.58999634 0.121569 0.466667 0.705882 1
58.76300049 569.02899170 462.85101318 0.121569 0.466667 0.705882 1
58.62200165 569.12298584 462.91400146 0.121569 0.466667 0.705882 1
58.93700027 569.02099609 462.79199219 0.121569 0.466667 0.705882 1
58.97200012 569.04101563 462.79800415 0.121569 0.466667 0.705882 1
59.01800156 569.00701904 462.40798950 0.121569 0.466667 0.705882 1
59.00299835 569.00897217 462.49398804 0.121569 0.466667 0.705882 1
58.99599838 569.01800537 462.85598755 0.121569 0.466667 0.705882 1
58.81700134 569.02899170 462.82299805 0.121569 0.466667 0.705882 1
59.33399963 569.24798584 462.01599121 0.121569 0.466667 0.705882 1
58.43999863 569.14398193 462.87100220 0.121569 0.466667 0.705882 1
58.97100067 568.98297119 463.04598999 0.121569 0.466667 0.705882 1
58.94499969 568.80200195 463.04501343 0.121569 0.466667 0.705882 1
58.94300079 569.01397705 462.75299072 0.121569 0.466667 0.705882 1
59.00500107 569.00500488 462.90798950 0.121569 0.466667 0.705882 1
58.94400024 568.80200195 463.11199951 0.121569 0.466667 0.705882 1
58.91600037 568.92700195 463.06399536 0.121569 0.466667 0.705882 1
58.95299911 569.00299072 462.85000610 0.121569 0.466667 0.705882 1
58.91199875 568.86999512 463.02999878 0.121569 0.466667 0.705882 1
59.04600143 569.01800537 462.47399902 0.121569 0.466667 0.705882 1
58.79100037 569.03302002 462.76400757 0.121569 0.466667 0.705882 1
58.62400055 568.53302002 463.04098511 0.121569 0.466667 0.705882 1
58.92100143 568.80200195 463.13598633 0.121569 0.466667 0.705882 1
58.91099930 568.87500000 463.16500854 0.121569 0.466667 0.705882 1
58.93600082 568.96398926 463.01501465 0.121569 0.466667 0.705882 1
58.92499924 568.79998779 463.18399048 0.121569 0.466667 0.705882 1
58.70899963 569.02600098 462.87500000 0.121569 0.466667 0.705882 1
58.91099930 568.87402344 463.21398926 0.121569 0.466667 0.705882 1
58.88899994 569.01098633 462.80599976 0.121569 0.466667 0.705882 1
58.93099976 568.91101074 463.25799561 0.121569 0.466667 0.705882 1
58.84000015 568.95098877 463.21798706 0.121569 0.466667 0.705882 1
58.93299866 568.78900146 463.32998657 0.121569 0.466667 0.705882 1
58.93600082 568.78802490 463.28500366 0.121569 0.466667 0.705882 1
58.95000076 568.81597900 463.31600952 0.121569 0.466667 0.705882 1
58.97800064 568.97802734 463.18600464 0.121569 0.466667 0.705882 1
58.91600037 568.80902100 463.22698975 0.121569 0.466667 0.705882 1
58.98099899 568.97198486 463.23599243 0.121569 0.466667 0.705882 1
58.92800140 568.79602051 463.37500000 0.121569 0.466667 0.705882 1
58.93000031 568.91400146 463.30300903 0.121569 0.466667 0.705882 1
58.96200180 568.94000244 463.44900513 0.121569 0.466667 0.705882 1
58.98799896 568.96801758 463.47601318 0.121569 0.466667 0.705882 1
59.00400162 569.00097656 462.33801270 0.121569 0.466667 0.705882 1
58.99000168 568.00299072 463.84799194 0.121569 0.466667 0.705882 1
58.94900131 568.25701904 463.98498535 0.121569 0.466667 0.705882 1
58.95999908 568.96801758 463.46099854 0.121569 0.466667 0.705882 1
58.93500137 568.90899658 463.49499512 0.121569 0.466667 0.705882 1
58.91600037 568.86602783 463.31201172 0.121569 0.466667 0.705882 1
58.97900009 568.07702637 463.85998535 0.121569 0.466667 0.705882 1
58.98099899 568.09002686 463.89401245 0.121569 0.466667 0.705882 1
58.96599960 568.03198242 463.88198853 0.121569 0.466667 0.705882 1
58.95100021 568.94799805 463.39599609 0.121569 0.466667 0.705882 1
58.74100113 568.03399658 463.95098877 0.121569 0.466667 0.705882 1
58.92800140 568.19500732 463.99200439 0.121569 0.466667 0.705882 1
58.98699951 568.06597900 463.87799072 0.121569 0.466667 0.705882 1
58.94699860 568.22900391 463.98001099 0.121569 0.466667 0.705882 1
58.93199921 568.90802002 463.44601440 0.121569 0.466667 0.705882 1
58.93299866 568.86602783 463.55099487 0.121569 0.466667 0.705882 1
58.96400070 568.93499756 463.59399414 0.121569 0.466667 0.705882 1
58.93799973 568.21301270 463.95800781 0.121569 0.466667 0.705882 1
58.98600006 568.96801758 463.56799316 0.121569 0.466667 0.705882 1
58.93999863 568.84301758 463.55899048 0.121569 0.466667 0.705882 1
58.93700027 568.84600830 463.84201050 0.121569 0.466667 0.705882 1
58.94499969 568.83599854 463.66000366 0.121569 0.466667 0.705882 1
58.92800140 568.85498047 463.50799561 0.121569 0.466667 0.705882 1
58.97999954 568.97802734 463.75399780 0.121569 0.466667 0.705882 1
58.93399811 568.90997314 463.54000854 0.121569 0.466667 0.705882 1
58.94599915 568.11199951 463.93798828 0.121569 0.466667 0.705882 1
58.93299866 568.12902832 463.97500610 0.121569 0.466667 0.705882 1
59.11999893 568.97802734 463.11099243 0.121569 0.466667 0.705882 1
58.94699860 568.89300537 463.93200684 0.121569 0.466667 0.705882 1
58.95500183 568.84698486 463.78799438 0.121569 0.466667 0.705882 1
58.93500137 568.84600830 463.74700928 0.121569 0.466667 0.705882 1
59.16199875 568.83502197 463.05700684 0.121569 0.466667 0.705882 1
59.15800095 568.82202148 463.06799316 0.121569 0.466667 0.705882 1
59.11999893 568.81799316 463.14498901 0.121569 0.466667 0.705882 1
59.14899826 568.85198975 463.08999634 0.121569 0.466667 0.705882 1
59.13800049 568.84802246 463.17700195 0.121569 0.466667 0.705882 1
58.93999863 568.90197754 463.97299194 0.121569 0.466667 0.705882 1
59.16799927 568.85900879 463.19400024 0.121569 0.466667 0.705882 1
59.12599945 568.81201172 463.24301147 0.121569 0.466667 0.705882 1
59.01599884 568.99499512 463.19299316 0.121569 0.466667 0.705882 1
58.94599915 568.83898926 463.79998779 0.121569 0.466667 0.705882 1
59.11399841 568.95697021 463.10598755 0.121569 0.466667 0.705882 1
58.94200134 568.84301758 463.89498901 0.121569 0.466667 0.705882 1
59.07400131 568.76202393 463.17599487 0.121569 0.466667 0.705882 1
59.07600021 568.76300049 463.24301147 0.121569 0.466667 0.705882 1
59.15700150 568.80902100 463.33099365 0.121569 0.466667 0.705882 1
59.07600021 568.76397705 463.44900513 0.121569 0.466667 0.705882 1
59.04499817 568.75701904 463.43399048 0.121569 0.466667 0.705882 1
59.00699997 568.76300049 463.46099854 0.121569 0.466667 0.705882 1
59.02600098 568.98602295 463.47799683 0.121569 0.466667 0.705882 1
59.15100098 568.98999023 463.49499512 0.121569 0.466667 0.705882 1
59.13700104 568.93499756 463.30200195 0.121569 0.466667 0.705882 1
59.25299835 568.92498779 463.46499634 0.121569 0.466667 0.705882 1
59.10800171 568.96002197 463.20498657 0.121569 0.466667 0.705882 1
59.15100098 568.92102051 463.40899658 0.121569 0.466667 0.705882 1
59.15900040 568.81799316 463.26199341 0.121569 0.466667 0.705882 1
59.16099930 568.85900879 463.48599243 0.121569 0.466667 0.705882 1
59.29700089 568.97900391 463.48999023 0.121569 0.466667 0.705882 1
59.19699860 568.94000244 463.46499634 0.121569 0.466667 0.705882 1
59.02199936 568.98797607 463.29199219 0.121569 0.466667 0.705882 1
59.91099930 568.98199463 463.22299194 0.121569 0.466667 0.705882 1
59.33200073 568.94897461 463.46200562 0.121569 0.466667 0.705882 1
59.95999908 568.92297363 463.33200073 0.121569 0.466667 0.705882 1
59.00600052 568.76501465 463.12500000 0.121569 0.466667 0.705882 1
59.07799911 568.77697754 463.51599121 0.121569 0.466667 0.705882 1
59.00699997 568.76098633 463.05700684 0.121569 0.466667 0.705882 1
59.71900177 568.27697754 463.60900879 0.121569 0.466667 0.705882 1
59.72999954 568.58697510 463.45300293 0.121569 0.466667 0.705882 1
59.82400131 568.51098633 463.46701050 0.121569 0.466667 0.705882 1
59.26900101 568.37200928 463.60299683 0.121569 0.466667 0.705882 1
59.69300079 568.71398926 463.39700317 0.121569 0.466667 0.705882 1
59.03099823 568.76599121 463.53399658 0.121569 0.466667 0.705882 1
59.93000031 568.88500977 463.44198608 0.121569 0.466667 0.705882 1
59.02199936 568.77801514 463.72900391 0.121569 0.466667 0.705882 1
59.01599884 568.99401855 463.71301270 0.121569 0.466667 0.705882 1
59.13700104 568.84002686 463.71301270 0.121569 0.466667 0.705882 1
59.01599884 568.99597168 463.85299683 0.121569 0.466667 0.705882 1
59.01699829 568.99499512 463.57000732 0.121569 0.466667 0.705882 1
59.08000183 568.77899170 463.78500366 0.121569 0.466667 0.705882 1
59.05899811 568.78997803 463.77899170 0.121569 0.466667 0.705882 1
59.01300049 568.79901123 463.86700439 0.121569 0.466667 0.705882 1
59.28599930 568.90698242 463.65899658 0.121569 0.466667 0.705882 1
59.13899994 568.98699951 463.82501221 0.121569 0.466667 0.705882 1
59.17900085 568.88098145 463.50500488 0.121569 0.466667 0.705882 1
59.15399933 568.85400391 463.89599609 0.121569 0.466667 0.705882 1
59.17499924 568.86199951 463.96499634 0.121569 0.466667 0.705882 1
59.15499878 568.79998779 463.93899536 0.121569 0.466667 0.705882 1
59.72000122 568.91302490 463.55700684 0.121569 0.466667 0.705882 1
59.02199936 568.77600098 463.82901001 0.121569 0.466667 0.705882 1
59.13000107 568.98498535 463.58898926 0.121569 0.466667 0.705882 1
59.65900040 568.58502197 463.59899902 0.121569 0.466667 0.705882 1
59.70299911 568.99597168 463.55899048 0.121569 0.466667 0.705882 1
59.83800125 568.72698975 463.50799561 0.121569 0.466667 0.705882 1
59.68299866 568.65698242 463.66299438 0.121569 0.466667 0.705882 1
59.13100052 568.99401855 463.84799194 0.121569 0.466667 0.705882 1
59.78599930 568.80603027 463.52398682 0.121569 0.466667 0.705882 1
59.07899857 568.78601074 463.85299683 0.121569 0.466667 0.705882 1
58.86000061 569.09899902 463.25900269 0.121569 0.466667 0.705882 1
58.87900162 569.09301758 463.31201172 0.121569 0.466667 0.705882 1
59.77600098 568.86297607 463.56201172 0.121569 0.466667 0.705882 1
59.65399933 568.84899902 463.62100220 0.121569 0.466667 0.705882 1
59.63000107 568.74298096 463.58801270 0.121569 0.466667 0.705882 1
59.73699951 568.61199951 463.58898926 0.121569 0.466667 0.705882 1
59.95500183 569.10797119 463.04998779 0.121569 0.466667 0.705882 1
59.54700089 568.96600342 463.66000366 0.121569 0.466667 0.705882 1
59.52099991 569.11602783 463.45999146 0.121569 0.466667 0.705882 1
59.85400009 569.06298828 463.35598755 0.121569 0.466667 0.705882 1
59.02799988 569.01300049 463.43899536 0.121569 0.466667 0.705882 1
59.84999847 569.02502441 463.39199829 0.121569 0.466667 0.705882 1
59.75400162 569.22998047 463.45199585 0.121569 0.466667 0.705882 1
59.67200089 569.18597412 463.46499634 0.121569 0.466667 0.705882 1
59.94499969 568.75598145 463.50799561 0.121569 0.466667 0.705882 1
59.03699875 569.01800537 463.35299683 0.121569 0.466667 0.705882 1
59.88199997 569.32299805 463.42700195 0.121569 0.466667 0.705882 1
59.01100159 569.00097656 463.99499512 0.121569 0.466667 0.705882 1
59.45000076 569.08197021 463.46200562 0.121569 0.466667 0.705882 1
59.95999908 568.91601563 463.40600586 0.121569 0.466667 0.705882 1
59.49599838 569.08599854 463.58700562 0.121569 0.466667 0.705882 1
59.56700134 569.30297852 463.60998535 0.121569 0.466667 0.705882 1
59.90100098 568.87799072 463.50399780 0.121569 0.466667 0.705882 1
59.03699875 569.01702881 463.59500122 0.121569 0.466667 0.705882 1
59.08399963 569.03601074 463.89300537 0.121569 0.466667 0.705882 1
59.06600189 569.02899170 463.82000732 0.121569 0.466667 0.705882 1
59.84000015 569.09100342 463.69100952 0.121569 0.466667 0.705882 1
59.79800034 569.12597656 463.74099731 0.121569 0.466667 0.705882 1
59.00400162 569.19097900 463.98999023 0.121569 0.466667 0.705882 1
59.63299942 569.03601074 463.53298950 0.121569 0.466667 0.705882 1
59.68999863 569.25097656 463.55099487 0.121569 0.466667 0.705882 1
59.56399918 569.35601807 463.57901001 0.121569 0.466667 0.705882 1
59.93899918 569.16601563 463.61300659 0.121569 0.466667 0.705882 1
59.59799957 569.36901855 463.64001465 0.121569 0.466667 0.705882 1
59.97000122 569.21398926 463.58801270 0.121569 0.466667 0.705882 1
59.78699875 569.27398682 463.53399658 0.121569 0.466667 0.705882 1
59.53699875 569.16198730 463.60598755 0.121569 0.466667 0.705882 1
59.63899994 569.31597900 463.64099121 0.121569 0.466667 0.705882 1
59.75899887 569.16101074 463.87298584 0.121569 0.466667 0.705882 1
59.53200150 569.27899170 463.68899536 0.121569 0.466667 0.705882 1
59.75400162 569.01702881 463.55801392 0.121569 0.466667 0.705882 1
59.68899918 569.46398926 463.78601074 0.121569 0.466667 0.705882 1
59.90999985 569.31201172 463.55899048 0.121569 0.466667 0.705882 1
59.69599915 569.47802734 463.81399536 0.121569 0.466667 0.705882 1
59.68000031 569.71301270 463.72299194 0.121569 0.466667 0.705882 1
59.62799835 569.82098389 463.69601440 0.121569 0.466667 0.705882 1
59.55500031 569.25598145 463.60900879 0.121569 0.466667 0.705882 1
59.81200027 569.64398193 463.56799316 0.121569 0.466667 0.705882 1
59.68099976 569.47302246 463.63800049 0.121569 0.466667 0.705882 1
59.71200180 569.49798584 463.78201294 0.121569 0.466667 0.705882 1
59.63999939 569.28601074 463.66699219 0.121569 0.466667 0.705882 1
59.63499832 569.30999756 463.59500122 0.121569 0.466667 0.705882 1
59.72399902 569.54302979 463.64300537 0.121569 0.466667 0.705882 1
59.55199814 569.23602295 463.63101196 0.121569 0.466667 0.705882 1
59.64500046 569.74798584 463.84298706 0.121569 0.466667 0.705882 1
59.97499847 569.30401611 463.83898926 0.121569 0.466667 0.705882 1
59.74599838 569.53997803 463.78500366 0.121569 0.466667 0.705882 1
59.70600128 569.50799561 463.63198853 0.121569 0.466667 0.705882 1
59.71599960 569.60900879 463.67599487 0.121569 0.466667 0.705882 1
60.01100159 568.33697510 463.45700073 0.121569 0.466667 0.705882 1
60.24599838 568.68402100 463.26300049 0.121569 0.466667 0.705882 1
60.25400162 568.68701172 463.34201050 0.121569 0.466667 0.705882 1
60.09000015 568.72900391 463.43301392 0.121569 0.466667 0.705882 1
60.03099823 568.92602539 463.29699707 0.121569 0.466667 0.705882 1
60.03900146 568.95599365 463.32501221 0.121569 0.466667 0.705882 1
60.11899948 568.99597168 463.23098755 0.121569 0.466667 0.705882 1
60.16199875 568.88702393 463.32199097 0.121569 0.466667 0.705882 1
60.06100082 568.95898438 463.38598633 0.121569 0.466667 0.705882 1
60.15100098 568.71398926 463.36199951 0.121569 0.466667 0.705882 1
60.22000122 568.33801270 463.71798706 0.121569 0.466667 0.705882 1
60.01599884 568.86401367 463.36700439 0.121569 0.466667 0.705882 1
60.23899841 568.71099854 463.43701172 0.121569 0.466667 0.705882 1
60.40100098 568.42999268 463.53201294 0.121569 0.466667 0.705882 1
60.25600052 568.46197510 463.58599854 0.121569 0.466667 0.705882 1
60.36500168 568.20397949 463.63000488 0.121569 0.466667 0.705882 1
60.29399872 568.52697754 463.59899902 0.121569 0.466667 0.705882 1
60.36700058 568.39599609 463.61401367 0.121569 0.466667 0.705882 1
60.20600128 568.66699219 463.64999390 0.121569 0.466667 0.705882 1
60.10200119 568.54101563 463.60101318 0.121569 0.466667 0.705882 1
60.23300171 568.13702393 463.59899902 0.121569 0.466667 0.705882 1
60.04600143 568.50000000 463.45199585 0.121569 0.466667 0.705882 1
60.07600021 569.03601074 463.35400391 0.121569 0.466667 0.705882 1
60.06999969 568.86499023 463.38598633 0.121569 0.466667 0.705882 1
60.02799988 569.20001221 463.10101318 0.121569 0.466667 0.705882 1
60.10300064 569.06799316 463.40200806 0.121569 0.466667 0.705882 1
60.08900070 568.87500000 463.32598877 0.121569 0.466667 0.705882 1
60.03200150 569.19500732 463.05599976 0.121569 0.466667 0.705882 1
60.04100037 569.30102539 463.72198486 0.121569 0.466667 0.705882 1
60.00999832 569.33001709 463.60998535 0.121569 0.466667 0.705882 1
60.12300110 568.52197266 463.56298828 0.121569 0.466667 0.705882 1
57.95000076 567.94897461 464.38299561 0.121569 0.466667 0.705882 1
58.34500122 567.99102783 464.24398804 0.121569 0.466667 0.705882 1
59.08399963 566.65002441 464.02099609 0.121569 0.466667 0.705882 1
57.97900009 567.92102051 464.44601440 0.121569 0.466667 0.705882 1
58.68999863 567.38897705 464.05099487 0.121569 0.466667 0.705882 1
58.98600006 567.24102783 464.02700806 0.121569 0.466667 0.705882 1
58.99100113 566.83300781 464.04998779 0.121569 0.466667 0.705882 1
58.59099960 567.31201172 464.13800049 0.121569 0.466667 0.705882 1
58.81399918 567.24597168 464.23199463 0.121569 0.466667 0.705882 1
59.46900177 566.74200439 464.16900635 0.121569 0.466667 0.705882 1
59.04499817 566.96899414 464.03399658 0.121569 0.466667 0.705882 1
58.58700180 567.29400635 464.02700806 0.121569 0.466667 0.705882 1
58.53799820 567.65600586 464.09600830 0.121569 0.466667 0.705882 1
58.89199829 567.54101563 464.13900757 0.121569 0.466667 0.705882 1
58.68700027 567.15197754 464.02099609 0.121569 0.466667 0.705882 1
58.56999969 567.78900146 464.28201294 0.121569 0.466667 0.705882 1
58.88299942 567.96301270 464.30499268 0.121569 0.466667 0.705882 1
58.59199905 567.76397705 464.24798584 0.121569 0.466667 0.705882 1
58.81900024 567.94598389 464.39599609 0.121569 0.466667 0.705882 1
59.37099838 567.93701172 464.10998535 0.121569 0.466667 0.705882 1
58.42300034 567.43200684 464.01000977 0.121569 0.466667 0.705882 1
58.66099930 567.32000732 464.03698730 0.121569 0.466667 0.705882 1
59.54000092 567.45697021 464.01300049 0.121569 0.466667 0.705882 1
59.62300110 567.40502930 464.14801025 0.121569 0.466667 0.705882 1
59.33300018 567.85797119 464.12100220 0.121569 0.466667 0.705882 1
58.07400131 567.99499512 464.25399780 0.121569 0.466667 0.705882 1
58.86999893 567.95202637 464.35598755 0.121569 0.466667 0.705882 1
59.40000153 567.54699707 464.05700684 0.121569 0.466667 0.705882 1
59.54399872 567.45300293 464.16799927 0.121569 0.466667 0.705882 1
58.88600159 567.54797363 464.18499756 0.121569 0.466667 0.705882 1
59.31000137 567.86401367 464.11801147 0.121569 0.466667 0.705882 1
58.60499954 567.74597168 464.20999146 0.121569 0.466667 0.705882 1
59.20600128 567.62402344 464.04000854 0.121569 0.466667 0.705882 1
59.38999939 567.99700928 464.30300903 0.121569 0.466667 0.705882 1
58.36600113 567.51702881 464.04800415 0.121569 0.466667 0.705882 1
59.00299835 567.48101807 464.05398560 0.121569 0.466667 0.705882 1
59.74800110 567.90399170 464.19198608 0.121569 0.466667 0.705882 1
59.55500031 567.77001953 464.18499756 0.121569 0.466667 0.705882 1
58.50099945 567.80902100 464.30099487 0.121569 0.466667 0.705882 1
59.02899933 567.58099365 464.08401489 0.121569 0.466667 0.705882 1
58.76499939 567.23400879 464.16799927 0.121569 0.466667 0.705882 1
58.96400070 567.58697510 464.11199951 0.121569 0.466667 0.705882 1
59.70000076 567.95202637 464.26199341 0.121569 0.466667 0.705882 1
58.40800095 567.67498779 465.39898682 0.121569 0.466667 0.705882 1
58.42900085 567.75799561 465.34100342 0.121569 0.466667 0.705882 1
58.43799973 567.79699707 465.27600098 0.121569 0.466667 0.705882 1
58.83499908 567.67297363 465.30899048 0.121569 0.466667 0.705882 1
59.65999985 567.77099609 464.50399780 0.121569 0.466667 0.705882 1
59.49800110 567.37298584 464.17800903 0.121569 0.466667 0.705882 1
58.73400116 567.72900391 465.45098877 0.121569 0.466667 0.705882 1
58.57699966 567.96997070 465.06399536 0.121569 0.466667 0.705882 1
58.40000153 567.66900635 465.69000244 0.121569 0.466667 0.705882 1
58.84600067 567.85498047 465.44299316 0.121569 0.466667 0.705882 1
58.45700073 567.85699463 465.37899780 0.121569 0.466667 0.705882 1
58.86600113 567.70001221 465.31399536 0.121569 0.466667 0.705882 1
59.78300095 567.69598389 464.33401489 0.121569 0.466667 0.705882 1
58.52600098 567.96801758 465.39498901 0.121569 0.466667 0.705882 1
59.16199875 567.46301270 465.99798584 0.121569 0.466667 0.705882 1
59.04600143 567.75097656 465.34899902 0.121569 0.466667 0.705882 1
59.08300018 567.63500977 465.27700806 0.121569 0.466667 0.705882 1
59.03400040 567.47998047 465.93301392 0.121569 0.466667 0.705882 1
59.41699982 567.89801025 464.29998779 0.121569 0.466667 0.705882 1
59.50099945 567.98699951 465.92300415 0.121569 0.466667 0.705882 1
59.43099976 567.96197510 465.89999390 0.121569 0.466667 0.705882 1
58.57899857 567.96899414 465.01599121 0.121569 0.466667 0.705882 1
58.15000153 567.96697998 465.95401001 0.121569 0.466667 0.705882 1
58.93099976 567.94702148 465.47000122 0.121569 0.466667 0.705882 1
58.16299820 567.78198242 467.40301514 0.121569 0.466667 0.705882 1
58.77299881 567.42498779 466.29598999 0.121569 0.466667 0.705882 1
58.41899872 567.77899170 465.37799072 0.121569 0.466667 0.705882 1
58.83399963 567.74102783 465.96701050 0.121569 0.466667 0.705882 1
58.31100082 567.84399414 466.14099121 0.121569 0.466667 0.705882 1
58.49499893 567.94097900 466.24398804 0.121569 0.466667 0.705882 1
58.45600128 567.98699951 466.02200317 0.121569 0.466667 0.705882 1
58.47200012 567.94500732 466.07800293 0.121569 0.466667 0.705882 1
58.29700089 567.85601807 466.21398926 0.121569 0.466667 0.705882 1
58.37400055 567.89501953 466.17800903 0.121569 0.466667 0.705882 1
58.39300156 567.93701172 466.26599121 0.121569 0.466667 0.705882 1
58.73899841 567.65899658 466.06900024 0.121569 0.466667 0.705882 1
58.17399979 567.74798584 466.35699463 0.121569 0.466667 0.705882 1
58.51100159 567.98797607 466.11099243 0.121569 0.466667 0.705882 1
58.78400040 567.73602295 466.10998535 0.121569 0.466667 0.705882 1
58.77299881 567.79998779 466.15600586 0.121569 0.466667 0.705882 1
58.26599884 567.95800781 466.32400513 0.121569 0.466667 0.705882 1
58.90499878 567.78802490 466.06698608 0.121569 0.466667 0.705882 1
58.30599976 567.81701660 466.07501221 0.121569 0.466667 0.705882 1
58.57500076 567.97497559 466.46899414 0.121569 0.466667 0.705882 1
58.26100159 567.60998535 466.31900024 0.121569 0.466667 0.705882 1
58.84700012 567.72601318 466.24499512 0.121569 0.466667 0.705882 1
58.86299896 567.88397217 466.15100098 0.121569 0.466667 0.705882 1
58.96400070 567.71801758 466.06298828 0.121569 0.466667 0.705882 1
59.05799866 567.41900635 466.00399780 0.121569 0.466667 0.705882 1
59.01100159 567.98101807 466.16299438 0.121569 0.466667 0.705882 1
58.84199905 567.66998291 466.26400757 0.121569 0.466667 0.705882 1
58.40399933 567.92401123 466.16900635 0.121569 0.466667 0.705882 1
59.15700150 567.49902344 466.10900879 0.121569 0.466667 0.705882 1
58.94699860 567.68298340 466.28601074 0.121569 0.466667 0.705882 1
58.82799911 567.78698730 466.11499023 0.121569 0.466667 0.705882 1
59.11600113 567.48199463 466.06298828 0.121569 0.466667 0.705882 1
59.13399887 567.51898193 466.04800415 0.121569 0.466667 0.705882 1
59.11999893 567.53900146 466.02499390 0.121569 0.466667 0.705882 1
59.15700150 567.63000488 466.06698608 0.121569 0.466667 0.705882 1
59.74800110 567.87701416 466.08801270 0.121569 0.466667 0.705882 1
59.63399887 567.96899414 466.09799194 0.121569 0.466667 0.705882 1
59.44900131 567.93701172 466.00100708 0.121569 0.466667 0.705882 1
58.53900146 567.95397949 466.27899170 0.121569 0.466667 0.705882 1
