52.06100082 570.09802246 473.16799927 0.121569 0.466667 0.705882 1
52.89799881 570.66802979 473.03799438 0.121569 0.466667 0.705882 1
52.56000137 570.97399902 473.45901489 0.121569 0.466667 0.705882 1
52.55199814 570.98999023 473.49700928 0.121569 0.466667 0.705882 1
52.11999893 570.25097656 473.63400269 0.121569 0.466667 0.705882 1
52.33200073 570.50799561 473.11801147 0.121569 0.466667 0.705882 1
52.80799866 570.67602539 473.02899170 0.121569 0.466667 0.705882 1
52.29899979 570.54199219 473.07400513 0.121569 0.466667 0.705882 1
52.44100189 570.59002686 473.00900269 0.121569 0.466667 0.705882 1
52.04999924 570.11901855 473.21099854 0.121569 0.466667 0.705882 1
52.82699966 570.69799805 473.19900513 0.121569 0.466667 0.705882 1
52.68500137 570.64898682 473.11700439 0.121569 0.466667 0.705882 1
52.13700104 570.95202637 473.25900269 0.121569 0.466667 0.705882 1
52.06000137 570.04199219 473.08300781 0.121569 0.466667 0.705882 1
52.32300186 570.06298828 473.52700806 0.121569 0.466667 0.705882 1
52.47499847 570.94702148 473.61801147 0.121569 0.466667 0.705882 1
53.84400177 571.53198242 472.90798950 0.121569 0.466667 0.705882 1
52.48500061 570.90600586 473.56500244 0.121569 0.466667 0.705882 1
52.45199966 570.92498779 473.79199219 0.121569 0.466667 0.705882 1
52.41400146 570.81597900 473.82998657 0.121569 0.466667 0.705882 1
52.72900009 570.68701172 473.33499146 0.121569 0.466667 0.705882 1
52.48300171 570.86700439 473.63000488 0.121569 0.466667 0.705882 1
52.47100067 570.95098877 473.76501465 0.121569 0.466667 0.705882 1
52.13899994 570.21301270 473.60900879 0.121569 0.466667 0.705882 1
52.48400116 570.88201904 473.78698730 0.121569 0.466667 0.705882 1
52.11399841 570.15002441 473.20401001 0.121569 0.466667 0.705882 1
52.34600067 570.89398193 473.98901367 0.121569 0.466667 0.705882 1
52.49499893 570.96697998 473.55300903 0.121569 0.466667 0.705882 1
52.41299820 570.88000488 473.85998535 0.121569 0.466667 0.705882 1
52.36899948 570.89898682 473.93899536 0.121569 0.466667 0.705882 1
53.08000183 570.04797363 473.92599487 0.121569 0.466667 0.705882 1
52.08000183 570.26098633 473.64001465 0.121569 0.466667 0.705882 1
53.53200150 570.02197266 473.10598755 0.121569 0.466667 0.705882 1
53.19300079 570.08697510 473.98400879 0.121569 0.466667 0.705882 1
52.33100128 570.90899658 473.98999023 0.121569 0.466667 0.705882 1
53.31299973 570.01501465 473.86401367 0.121569 0.466667 0.705882 1
53.28200150 570.15698242 473.94100952 0.121569 0.466667 0.705882 1
53.05300140 570.02398682 473.16900635 0.121569 0.466667 0.705882 1
53.61299896 570.92401123 473.74398804 0.121569 0.466667 0.705882 1
52.54399872 571.00000000 473.55700684 0.121569 0.466667 0.705882 1
53.79899979 570.92297363 473.95199585 0.121569 0.466667 0.705882 1
53.25199890 570.04797363 473.81600952 0.121569 0.466667 0.705882 1
53.02799988 570.15002441 473.06201172 0.121569 0.466667 0.705882 1
52.18299866 570.13800049 473.50000000 0.121569 0.466667 0.705882 1
52.44499969 571.44000244 473.00900269 0.121569 0.466667 0.705882 1
52.00799942 571.79400635 473.05999756 0.121569 0.466667 0.705882 1
53.57400131 570.98297119 473.87399292 0.121569 0.466667 0.705882 1
52.19100189 571.14599609 473.09698486 0.121569 0.466667 0.705882 1
53.02999878 570.23999023 473.21200562 0.121569 0.466667 0.705882 1
52.07600021 571.23400879 473.34399414 0.121569 0.466667 0.705882 1
52.43099976 571.46502686 473.04199219 0.121569 0.466667 0.705882 1
53.55099869 570.02398682 473.03100586 0.121569 0.466667 0.705882 1
52.22999954 571.30700684 473.29800415 0.121569 0.466667 0.705882 1
52.59500122 571.08398438 473.34298706 0.121569 0.466667 0.705882 1
52.58700180 571.04199219 473.46798706 0.121569 0.466667 0.705882 1
52.56900024 571.01397705 473.45498657 0.121569 0.466667 0.705882 1
52.15200043 571.10601807 473.16101074 0.121569 0.466667 0.705882 1
52.11199951 571.22802734 473.29998779 0.121569 0.466667 0.705882 1
52.68399811 571.21600342 473.01599121 0.121569 0.466667 0.705882 1
52.62500000 571.04699707 473.42999268 0.121569 0.466667 0.705882 1
52.70800018 571.50097656 473.27499390 0.121569 0.466667 0.705882 1
52.10900116 571.83898926 473.08801270 0.121569 0.466667 0.705882 1
52.20000076 571.55603027 473.13500977 0.121569 0.466667 0.705882 1
52.58300018 571.04699707 473.38598633 0.121569 0.466667 0.705882 1
52.18799973 571.81097412 473.03298950 0.121569 0.466667 0.705882 1
52.01399994 571.70898438 473.10501099 0.121569 0.466667 0.705882 1
52.14899826 571.82299805 473.05398560 0.121569 0.466667 0.705882 1
52.41699982 571.48400879 473.08801270 0.121569 0.466667 0.705882 1
52.16400146 571.80102539 473.01199341 0.121569 0.466667 0.705882 1
52.21099854 571.82397461 473.16799927 0.121569 0.466667 0.705882 1
52.38199997 571.60198975 473.16598511 0.121569 0.466667 0.705882 1
52.13100052 571.85302734 473.08099365 0.121569 0.466667 0.705882 1
52.24300003 571.34197998 473.32800293 0.121569 0.466667 0.705882 1
53.34999847 570.11602783 473.93600464 0.121569 0.466667 0.705882 1
52.09600067 571.91302490 473.21301270 0.121569 0.466667 0.705882 1
52.12799835 571.08502197 473.19500732 0.121569 0.466667 0.705882 1
52.27099991 571.83300781 473.02398682 0.121569 0.466667 0.705882 1
52.55699921 570.94799805 473.52999878 0.121569 0.466667 0.705882 1
52.34000015 571.93200684 473.22000122 0.121569 0.466667 0.705882 1
53.06100082 570.03198242 473.91101074 0.121569 0.466667 0.705882 1
52.27399826 571.56597900 473.28399658 0.121569 0.466667 0.705882 1
52.05699921 571.54797363 473.37399292 0.121569 0.466667 0.705882 1
52.00299835 571.96099854 473.29800415 0.121569 0.466667 0.705882 1
52.02000046 571.98797607 473.31100464 0.121569 0.466667 0.705882 1
52.15499878 571.58300781 473.30801392 0.121569 0.466667 0.705882 1
52.06999969 571.90002441 473.21600342 0.121569 0.466667 0.705882 1
52.08399963 571.87701416 473.17700195 0.121569 0.466667 0.705882 1
52.58300018 571.59698486 473.22799683 0.121569 0.466667 0.705882 1
52.09600067 571.85699463 473.13598633 0.121569 0.466667 0.705882 1
52.96300125 571.99499512 473.33099365 0.121569 0.466667 0.705882 1
52.49100113 571.03198242 473.84799194 0.121569 0.466667 0.705882 1
52.35300064 571.96099854 473.41299438 0.121569 0.466667 0.705882 1
52.11899948 571.86999512 473.12799072 0.121569 0.466667 0.705882 1
52.49700165 571.07800293 473.89999390 0.121569 0.466667 0.705882 1
52.42300034 571.14599609 473.86401367 0.121569 0.466667 0.705882 1
52.29600143 571.94799805 473.01501465 0.121569 0.466667 0.705882 1
52.29499817 571.48602295 473.95098877 0.121569 0.466667 0.705882 1
52.13399887 571.82397461 473.01000977 0.121569 0.466667 0.705882 1
52.40299988 571.12500000 473.93499756 0.121569 0.466667 0.705882 1
52.01900101 571.91699219 473.62600708 0.121569 0.466667 0.705882 1
52.59400177 571.58001709 473.32699585 0.121569 0.466667 0.705882 1
52.73500061 571.50897217 473.29800415 0.121569 0.466667 0.705882 1
52.56999969 571.56097412 473.26501465 0.121569 0.466667 0.705882 1
53.95700073 571.42602539 473.09298706 0.121569 0.466667 0.705882 1
52.35200119 571.59197998 473.30099487 0.121569 0.466667 0.705882 1
53.99100113 571.43103027 473.18899536 0.121569 0.466667 0.705882 1
53.49000168 571.57098389 473.05499268 0.121569 0.466667 0.705882 1
53.43999863 571.49597168 473.04800415 0.121569 0.466667 0.705882 1
53.48099899 571.49902344 473.03698730 0.121569 0.466667 0.705882 1
53.43799973 571.50500488 473.12701416 0.121569 0.466667 0.705882 1
52.10800171 571.89501953 473.16598511 0.121569 0.466667 0.705882 1
52.02700043 571.92199707 473.27999878 0.121569 0.466667 0.705882 1
53.37300110 571.58099365 473.29400635 0.121569 0.466667 0.705882 1
53.98199844 571.44598389 473.09399414 0.121569 0.466667 0.705882 1
53.12400055 571.85101318 473.35101318 0.121569 0.466667 0.705882 1
53.46099854 571.56201172 473.04299927 0.121569 0.466667 0.705882 1
53.45700073 571.96801758 473.25799561 0.121569 0.466667 0.705882 1
53.45700073 571.67199707 473.30398560 0.121569 0.466667 0.705882 1
53.85900116 571.31097412 473.16598511 0.121569 0.466667 0.705882 1
53.34600067 571.58001709 473.33200073 0.121569 0.466667 0.705882 1
52.51300049 571.05102539 473.86300659 0.121569 0.466667 0.705882 1
53.39899826 571.94702148 473.37899780 0.121569 0.466667 0.705882 1
53.51100159 571.54498291 473.24200439 0.121569 0.466667 0.705882 1
53.44800186 571.63397217 473.32800293 0.121569 0.466667 0.705882 1
52.46300125 571.08197021 473.92800903 0.121569 0.466667 0.705882 1
53.82899857 571.58697510 473.10800171 0.121569 0.466667 0.705882 1
53.16799927 571.98199463 473.13598633 0.121569 0.466667 0.705882 1
53.45500183 571.96600342 473.18099976 0.121569 0.466667 0.705882 1
53.57500076 571.55700684 473.14999390 0.121569 0.466667 0.705882 1
53.77799988 571.57397461 473.13500977 0.121569 0.466667 0.705882 1
53.81299973 571.67498779 473.18499756 0.121569 0.466667 0.705882 1
53.93999863 571.03900146 473.03900146 0.121569 0.466667 0.705882 1
53.87400055 571.52600098 473.02801514 0.121569 0.466667 0.705882 1
53.87799835 571.57702637 473.19601440 0.121569 0.466667 0.705882 1
53.25199890 571.60900879 473.36898804 0.121569 0.466667 0.705882 1
53.82199860 571.56097412 473.01000977 0.121569 0.466667 0.705882 1
53.81299973 571.62597656 473.30999756 0.121569 0.466667 0.705882 1
54.00000000 571.67199707 473.27301025 0.121569 0.466667 0.705882 1
53.86800003 571.69799805 473.20300293 0.121569 0.466667 0.705882 1
53.78699875 571.61401367 473.29901123 0.121569 0.466667 0.705882 1
53.51300049 571.50701904 473.00299072 0.121569 0.466667 0.705882 1
53.78300095 571.66699219 473.17199707 0.121569 0.466667 0.705882 1
53.15900040 571.99499512 473.41699219 0.121569 0.466667 0.705882 1
53.75400162 571.65698242 473.38198853 0.121569 0.466667 0.705882 1
53.89199829 571.66699219 473.47601318 0.121569 0.466667 0.705882 1
53.59299850 571.87597656 473.48999023 0.121569 0.466667 0.705882 1
53.82500076 571.75701904 473.40600586 0.121569 0.466667 0.705882 1
53.52500153 571.62701416 473.26599121 0.121569 0.466667 0.705882 1
53.86199951 571.60699463 473.36700439 0.121569 0.466667 0.705882 1
53.78499985 571.56402588 473.07699585 0.121569 0.466667 0.705882 1
53.90900040 571.34301758 473.69799805 0.121569 0.466667 0.705882 1
53.91099930 571.39202881 473.72100830 0.121569 0.466667 0.705882 1
53.63899994 571.41497803 473.93200684 0.121569 0.466667 0.705882 1
53.69499969 571.93499756 473.42898560 0.121569 0.466667 0.705882 1
53.84700012 571.77600098 473.48901367 0.121569 0.466667 0.705882 1
53.61100006 571.85302734 473.60198975 0.121569 0.466667 0.705882 1
53.98400116 571.39398193 473.51699829 0.121569 0.466667 0.705882 1
53.86199951 571.65698242 473.34698486 0.121569 0.466667 0.705882 1
53.77299881 571.15600586 473.77499390 0.121569 0.466667 0.705882 1
53.98199844 571.99700928 473.27801514 0.121569 0.466667 0.705882 1
53.58399963 571.64398193 473.96099854 0.121569 0.466667 0.705882 1
53.90599823 571.68499756 473.50100708 0.121569 0.466667 0.705882 1
53.86899948 571.69799805 473.65301514 0.121569 0.466667 0.705882 1
53.65499878 571.33801270 473.86401367 0.121569 0.466667 0.705882 1
53.87300110 571.69396973 473.57998657 0.121569 0.466667 0.705882 1
53.54800034 571.58898926 473.24499512 0.121569 0.466667 0.705882 1
53.79800034 571.59497070 473.17999268 0.121569 0.466667 0.705882 1
53.92300034 571.82098389 473.92001343 0.121569 0.466667 0.705882 1
54.05799866 571.73901367 473.00399780 0.121569 0.466667 0.705882 1
53.92300034 571.72497559 473.65899658 0.121569 0.466667 0.705882 1
53.91199875 571.83801270 473.96798706 0.121569 0.466667 0.705882 1
53.73600006 571.77697754 473.92800903 0.121569 0.466667 0.705882 1
54.31499863 570.05999756 472.24301147 0.121569 0.466667 0.705882 1
53.85800171 571.66400146 473.54598999 0.121569 0.466667 0.705882 1
53.70500183 571.72698975 473.96200562 0.121569 0.466667 0.705882 1
53.90200043 571.82800293 473.85101318 0.121569 0.466667 0.705882 1
54.28099823 570.16400146 472.08999634 0.121569 0.466667 0.705882 1
54.26499939 570.13299561 472.07901001 0.121569 0.466667 0.705882 1
54.59799957 570.97698975 472.12298584 0.121569 0.466667 0.705882 1
54.91899872 570.22900391 472.06698608 0.121569 0.466667 0.705882 1
53.91600037 571.78399658 473.85699463 0.121569 0.466667 0.705882 1
54.88700104 570.75897217 472.41198730 0.121569 0.466667 0.705882 1
54.78300095 570.30200195 472.05300903 0.121569 0.466667 0.705882 1
54.76699829 570.80999756 472.14599609 0.121569 0.466667 0.705882 1
53.91099930 571.78900146 473.92700195 0.121569 0.466667 0.705882 1
53.92300034 571.37200928 473.67001343 0.121569 0.466667 0.705882 1
54.37699890 570.90802002 472.29901123 0.121569 0.466667 0.705882 1
54.81299973 570.85198975 472.14401245 0.121569 0.466667 0.705882 1
54.34600067 570.12799072 472.01400757 0.121569 0.466667 0.705882 1
54.79600143 570.17401123 472.67599487 0.121569 0.466667 0.705882 1
54.84299850 570.21899414 472.85699463 0.121569 0.466667 0.705882 1
54.87500000 570.16998291 472.73599243 0.121569 0.466667 0.705882 1
54.89199829 570.39001465 472.83801270 0.121569 0.466667 0.705882 1
54.89500046 570.34698486 472.93301392 0.121569 0.466667 0.705882 1
54.96099854 570.03302002 472.98498535 0.121569 0.466667 0.705882 1
54.83100128 570.23797607 472.76098633 0.121569 0.466667 0.705882 1
54.90700150 570.59802246 472.99499512 0.121569 0.466667 0.705882 1
54.79499817 570.12200928 472.86999512 0.121569 0.466667 0.705882 1
53.72600174 571.74401855 473.96600342 0.121569 0.466667 0.705882 1
54.00699997 570.88897705 472.56500244 0.121569 0.466667 0.705882 1
54.80599976 570.10101318 472.75201416 0.121569 0.466667 0.705882 1
54.99000168 570.07897949 472.29598999 0.121569 0.466667 0.705882 1
54.99900055 570.03399658 472.31600952 0.121569 0.466667 0.705882 1
55.00400162 570.16699219 472.36401367 0.121569 0.466667 0.705882 1
54.89500046 570.80102539 472.31900024 0.121569 0.466667 0.705882 1
55.13999939 570.37298584 472.69900513 0.121569 0.466667 0.705882 1
55.10100174 570.09698486 472.28298950 0.121569 0.466667 0.705882 1
54.89799881 570.44799805 472.74200439 0.121569 0.466667 0.705882 1
55.04899979 570.05102539 472.50698853 0.121569 0.466667 0.705882 1
54.31399918 571.45697021 472.04000854 0.121569 0.466667 0.705882 1
54.79700089 570.17401123 472.74099731 0.121569 0.466667 0.705882 1
54.70999908 571.04101563 472.12799072 0.121569 0.466667 0.705882 1
54.31900024 571.49700928 472.07299805 0.121569 0.466667 0.705882 1
54.56999969 571.16802979 472.12298584 0.121569 0.466667 0.705882 1
54.09500122 571.63897705 472.01901245 0.121569 0.466667 0.705882 1
54.29499817 571.47698975 472.07699585 0.121569 0.466667 0.705882 1
54.06299973 571.68701172 472.15798950 0.121569 0.466667 0.705882 1
54.04100037 571.66198730 472.10998535 0.121569 0.466667 0.705882 1
54.04899979 571.65399170 472.05300903 0.121569 0.466667 0.705882 1
54.02999878 571.68200684 472.22198486 0.121569 0.466667 0.705882 1
54.81700134 570.20098877 472.70901489 0.121569 0.466667 0.705882 1
54.02600098 571.73602295 472.36401367 0.121569 0.466667 0.705882 1
54.03099823 571.62902832 472.04998779 0.121569 0.466667 0.705882 1
54.05300140 571.69598389 472.21200562 0.121569 0.466667 0.705882 1
54.03599930 571.66900635 472.17001343 0.121569 0.466667 0.705882 1
54.81900024 570.25598145 472.38598633 0.121569 0.466667 0.705882 1
54.13999939 571.72198486 472.40100098 0.121569 0.466667 0.705882 1
54.28499985 571.63897705 472.18798828 0.121569 0.466667 0.705882 1
54.00099945 571.35900879 472.58999634 0.121569 0.466667 0.705882 1
54.20600128 571.79101563 472.41900635 0.121569 0.466667 0.705882 1
54.54000092 571.05798340 472.15301514 0.121569 0.466667 0.705882 1
54.01699829 571.74597168 472.41900635 0.121569 0.466667 0.705882 1
54.51499939 571.08898926 472.17999268 0.121569 0.466667 0.705882 1
54.53599930 571.01000977 472.06900024 0.121569 0.466667 0.705882 1
54.01200104 571.70501709 472.39700317 0.121569 0.466667 0.705882 1
54.26900101 571.07501221 472.31698608 0.121569 0.466667 0.705882 1
54.08800125 571.55401611 472.50500488 0.121569 0.466667 0.705882 1
54.02299881 571.70501709 472.10699463 0.121569 0.466667 0.705882 1
55.25999832 570.04998779 472.79998779 0.121569 0.466667 0.705882 1
54.07600021 571.79602051 472.44198608 0.121569 0.466667 0.705882 1
54.10699844 571.58502197 472.38000488 0.121569 0.466667 0.705882 1
54.12799835 571.84002686 472.52398682 0.121569 0.466667 0.705882 1
54.14400101 571.72601318 472.57598877 0.121569 0.466667 0.705882 1
54.04100037 571.85998535 472.65899658 0.121569 0.466667 0.705882 1
54.01300049 571.84497070 472.65600586 0.121569 0.466667 0.705882 1
54.04000092 571.79302979 472.50500488 0.121569 0.466667 0.705882 1
54.06000137 571.88000488 472.73699951 0.121569 0.466667 0.705882 1
54.00099945 571.37097168 472.89898682 0.121569 0.466667 0.705882 1
54.01100159 571.80102539 472.55099487 0.121569 0.466667 0.705882 1
54.27500153 571.75000000 472.86300659 0.121569 0.466667 0.705882 1
54.00799942 571.43103027 472.68600464 0.121569 0.466667 0.705882 1
54.21400070 571.77099609 472.62298584 0.121569 0.466667 0.705882 1
54.09099960 571.54901123 472.72601318 0.121569 0.466667 0.705882 1
54.08499908 571.60400391 472.83099365 0.121569 0.466667 0.705882 1
54.28599930 571.53900146 472.78399658 0.121569 0.466667 0.705882 1
54.15499878 571.26202393 472.74700928 0.121569 0.466667 0.705882 1
54.00799942 571.95300293 472.84500122 0.121569 0.466667 0.705882 1
54.00199890 571.37701416 472.97500610 0.121569 0.466667 0.705882 1
54.25000000 571.68701172 472.47100830 0.121569 0.466667 0.705882 1
54.18399811 571.37298584 472.57299805 0.121569 0.466667 0.705882 1
54.01900101 571.93597412 472.79901123 0.121569 0.466667 0.705882 1
54.00500107 571.85900879 472.70700073 0.121569 0.466667 0.705882 1
54.06999969 571.81896973 472.57699585 0.121569 0.466667 0.705882 1
54.29700089 571.75598145 472.82901001 0.121569 0.466667 0.705882 1
55.13299942 571.86798096 472.31698608 0.121569 0.466667 0.705882 1
54.30699921 570.13201904 473.26400757 0.121569 0.466667 0.705882 1
54.05199814 570.04602051 473.11099243 0.121569 0.466667 0.705882 1
54.01300049 571.89801025 472.74600220 0.121569 0.466667 0.705882 1
54.84199905 570.27899170 473.23901367 0.121569 0.466667 0.705882 1
54.99599838 570.01300049 473.35598755 0.121569 0.466667 0.705882 1
54.88199997 570.20397949 473.23199463 0.121569 0.466667 0.705882 1
54.73099899 570.09802246 473.35699463 0.121569 0.466667 0.705882 1
54.80799866 570.15899658 473.41799927 0.121569 0.466667 0.705882 1
54.86800003 570.18597412 473.26098633 0.121569 0.466667 0.705882 1
54.88499832 570.25897217 473.20700073 0.121569 0.466667 0.705882 1
54.96699905 570.13201904 473.07299805 0.121569 0.466667 0.705882 1
54.78099823 570.17199707 473.34500122 0.121569 0.466667 0.705882 1
54.88600159 570.40802002 473.15701294 0.121569 0.466667 0.705882 1
54.86199951 570.68402100 473.16900635 0.121569 0.466667 0.705882 1
54.77500153 570.26000977 473.27398682 0.121569 0.466667 0.705882 1
54.92399979 570.55200195 473.13800049 0.121569 0.466667 0.705882 1
54.84199905 570.65899658 473.02801514 0.121569 0.466667 0.705882 1
54.29100037 570.26898193 473.95401001 0.121569 0.466667 0.705882 1
54.89500046 570.58801270 473.45300293 0.121569 0.466667 0.705882 1
54.45700073 570.08300781 473.84799194 0.121569 0.466667 0.705882 1
54.74900055 570.62402344 473.43798828 0.121569 0.466667 0.705882 1
54.81499863 570.23602295 473.19699097 0.121569 0.466667 0.705882 1
54.17800140 570.19598389 473.96200562 0.121569 0.466667 0.705882 1
54.56900024 570.11401367 473.62701416 0.121569 0.466667 0.705882 1
54.86999893 570.56896973 473.10299683 0.121569 0.466667 0.705882 1
54.38000107 570.19897461 473.91500854 0.121569 0.466667 0.705882 1
54.86800003 570.73199463 473.20999146 0.121569 0.466667 0.705882 1
54.35300064 570.23297119 473.94100952 0.121569 0.466667 0.705882 1
54.63100052 570.06500244 473.67898560 0.121569 0.466667 0.705882 1
54.90900040 570.13299561 473.56100464 0.121569 0.466667 0.705882 1
54.57600021 570.09002686 473.75399780 0.121569 0.466667 0.705882 1
54.69400024 570.09197998 473.59799194 0.121569 0.466667 0.705882 1
54.48799896 570.09899902 473.82901001 0.121569 0.466667 0.705882 1
54.97299957 570.70001221 473.24600220 0.121569 0.466667 0.705882 1
54.72700119 570.59802246 473.83499146 0.121569 0.466667 0.705882 1
54.55799866 570.98101807 473.54199219 0.121569 0.466667 0.705882 1
54.27399826 570.11901855 473.97900391 0.121569 0.466667 0.705882 1
54.52899933 570.09600830 473.78698730 0.121569 0.466667 0.705882 1
54.77700043 570.56298828 473.79901123 0.121569 0.466667 0.705882 1
55.02899933 570.62799072 473.42498779 0.121569 0.466667 0.705882 1
55.31399918 570.07702637 473.24798584 0.121569 0.466667 0.705882 1
54.78499985 570.62799072 473.66699219 0.121569 0.466667 0.705882 1
54.98699951 570.54998779 473.13598633 0.121569 0.466667 0.705882 1
54.68399811 570.70898438 473.76400757 0.121569 0.466667 0.705882 1
54.23300171 570.89398193 473.92098999 0.121569 0.466667 0.705882 1
55.00400162 570.08898926 473.18301392 0.121569 0.466667 0.705882 1
54.69200134 570.64599609 473.68899536 0.121569 0.466667 0.705882 1
55.48099899 570.01202393 473.22198486 0.121569 0.466667 0.705882 1
55.10100174 570.07000732 473.40798950 0.121569 0.466667 0.705882 1
55.08200073 570.13800049 473.30499268 0.121569 0.466667 0.705882 1
55.15299988 570.17199707 473.37500000 0.121569 0.466667 0.705882 1
55.39899826 570.03900146 473.29598999 0.121569 0.466667 0.705882 1
54.14799881 570.95898438 473.93499756 0.121569 0.466667 0.705882 1
55.43799973 570.04302979 473.31399536 0.121569 0.466667 0.705882 1
55.22600174 570.20098877 473.46301270 0.121569 0.466667 0.705882 1
55.00799942 570.22302246 473.27398682 0.121569 0.466667 0.705882 1
55.42499924 570.00299072 473.41900635 0.121569 0.466667 0.705882 1
55.06499863 570.00701904 473.19198608 0.121569 0.466667 0.705882 1
55.07799911 570.23602295 473.44699097 0.121569 0.466667 0.705882 1
55.05799866 570.69598389 473.44500732 0.121569 0.466667 0.705882 1
55.00899887 570.21197510 473.18701172 0.121569 0.466667 0.705882 1
55.14099884 570.07000732 473.71899414 0.121569 0.466667 0.705882 1
55.24499893 570.29302979 473.56399536 0.121569 0.466667 0.705882 1
55.15000153 570.25402832 473.48001099 0.121569 0.466667 0.705882 1
55.30500031 570.27301025 473.62799072 0.121569 0.466667 0.705882 1
55.27099991 570.31500244 473.64300537 0.121569 0.466667 0.705882 1
55.02000046 570.05798340 473.08401489 0.121569 0.466667 0.705882 1
55.32500076 570.35302734 473.64199829 0.121569 0.466667 0.705882 1
54.40499878 570.16302490 473.89199829 0.121569 0.466667 0.705882 1
55.14400101 570.07501221 473.87100220 0.121569 0.466667 0.705882 1
55.36999893 570.12902832 473.64001465 0.121569 0.466667 0.705882 1
55.11299896 570.07897949 473.52301025 0.121569 0.466667 0.705882 1
55.13399887 570.22198486 473.43899536 0.121569 0.466667 0.705882 1
55.45299911 570.13397217 473.68301392 0.121569 0.466667 0.705882 1
55.04100037 570.01599121 473.80398560 0.121569 0.466667 0.705882 1
55.33399963 570.01000977 473.98199463 0.121569 0.466667 0.705882 1
55.29899979 570.33502197 473.77801514 0.121569 0.466667 0.705882 1
55.36500168 570.35601807 473.82000732 0.121569 0.466667 0.705882 1
55.38100052 570.29998779 473.77600098 0.121569 0.466667 0.705882 1
55.34899902 570.37701416 473.84899902 0.121569 0.466667 0.705882 1
55.37300110 570.34399414 473.97500610 0.121569 0.466667 0.705882 1
55.67200089 570.07202148 473.41799927 0.121569 0.466667 0.705882 1
55.30599976 570.36602783 473.91198730 0.121569 0.466667 0.705882 1
55.08599854 570.17297363 473.91598511 0.121569 0.466667 0.705882 1
55.42800140 570.30297852 473.98800659 0.121569 0.466667 0.705882 1
55.40900040 570.13800049 473.67098999 0.121569 0.466667 0.705882 1
55.76699829 570.01202393 473.51300049 0.121569 0.466667 0.705882 1
54.65000153 570.91198730 473.29501343 0.121569 0.466667 0.705882 1
55.51900101 570.10601807 473.68798828 0.121569 0.466667 0.705882 1
55.38700104 570.41998291 473.79901123 0.121569 0.466667 0.705882 1
55.21799850 570.71197510 473.60900879 0.121569 0.466667 0.705882 1
55.34000015 570.05798340 473.75399780 0.121569 0.466667 0.705882 1
55.22100067 570.58502197 473.99200439 0.121569 0.466667 0.705882 1
55.72200012 570.07000732 473.88299561 0.121569 0.466667 0.705882 1
55.32300186 570.35601807 473.78799438 0.121569 0.466667 0.705882 1
55.39199829 570.02600098 473.82400513 0.121569 0.466667 0.705882 1
55.40299988 570.47100830 473.98699951 0.121569 0.466667 0.705882 1
55.29999924 570.33197021 473.70599365 0.121569 0.466667 0.705882 1
55.13800049 570.63098145 473.52398682 0.121569 0.466667 0.705882 1
55.10499954 570.69097900 473.70001221 0.121569 0.466667 0.705882 1
55.27399826 570.84399414 473.76699829 0.121569 0.466667 0.705882 1
55.24100113 570.06402588 473.63198853 0.121569 0.466667 0.705882 1
55.39199829 570.55102539 473.91900635 0.121569 0.466667 0.705882 1
55.29899979 570.86199951 473.78698730 0.121569 0.466667 0.705882 1
54.08800125 571.43298340 473.35400391 0.121569 0.466667 0.705882 1
54.07400131 571.37402344 473.54098511 0.121569 0.466667 0.705882 1
54.47700119 571.03601074 473.64099121 0.121569 0.466667 0.705882 1
54.06499863 571.43597412 473.30398560 0.121569 0.466667 0.705882 1
55.68799973 570.00097656 473.74398804 0.121569 0.466667 0.705882 1
55.85200119 570.09899902 473.98400879 0.121569 0.466667 0.705882 1
54.04299927 571.41302490 473.32901001 0.121569 0.466667 0.705882 1
54.00899887 571.40997314 473.44299316 0.121569 0.466667 0.705882 1
55.29499817 570.36999512 473.60598755 0.121569 0.466667 0.705882 1
54.10699844 571.96600342 473.33401489 0.121569 0.466667 0.705882 1
54.13399887 571.35797119 473.65399170 0.121569 0.466667 0.705882 1
54.01800156 571.39398193 473.39099121 0.121569 0.466667 0.705882 1
54.11100006 571.37402344 473.62701416 0.121569 0.466667 0.705882 1
54.01800156 571.50000000 473.13400269 0.121569 0.466667 0.705882 1
55.34000015 570.42102051 473.89999390 0.121569 0.466667 0.705882 1
54.27199936 571.94500732 473.67199707 0.121569 0.466667 0.705882 1
54.21500015 571.65301514 473.78298950 0.121569 0.466667 0.705882 1
54.16099930 571.35900879 473.76000977 0.121569 0.466667 0.705882 1
54.00699997 571.40899658 473.51800537 0.121569 0.466667 0.705882 1
53.37300110 569.41998291 474.01800537 0.121569 0.466667 0.705882 1
53.45100021 569.41497803 473.99899292 0.121569 0.466667 0.705882 1
53.34700012 569.69299316 474.01901245 0.121569 0.466667 0.705882 1
53.55300140 569.55999756 474.02499390 0.121569 0.466667 0.705882 1
53.28400040 569.88397217 474.06399536 0.121569 0.466667 0.705882 1
54.40200043 569.39398193 474.02301025 0.121569 0.466667 0.705882 1
54.54100037 569.37298584 474.03900146 0.121569 0.466667 0.705882 1
54.53900146 569.37500000 474.19198608 0.121569 0.466667 0.705882 1
54.58399963 569.36700439 474.35598755 0.121569 0.466667 0.705882 1
54.41299820 569.62402344 474.08200073 0.121569 0.466667 0.705882 1
54.38800049 569.60198975 474.03698730 0.121569 0.466667 0.705882 1
54.58399963 569.43200684 474.06298828 0.121569 0.466667 0.705882 1
54.37099838 569.38098145 474.06201172 0.121569 0.466667 0.705882 1
54.67499924 569.29797363 474.27099609 0.121569 0.466667 0.705882 1
54.54600143 569.42401123 474.12600708 0.121569 0.466667 0.705882 1
54.69800186 569.85601807 474.04699707 0.121569 0.466667 0.705882 1
54.52899933 569.39001465 474.09698486 0.121569 0.466667 0.705882 1
54.84199905 569.53497314 474.15100098 0.121569 0.466667 0.705882 1
54.36000061 569.52600098 474.16101074 0.121569 0.466667 0.705882 1
54.89199829 569.75897217 474.03399658 0.121569 0.466667 0.705882 1
54.84999847 569.75799561 474.03100586 0.121569 0.466667 0.705882 1
54.69800186 569.35400391 474.43301392 0.121569 0.466667 0.705882 1
54.58700180 569.60302734 474.28698730 0.121569 0.466667 0.705882 1
54.90800095 569.79498291 474.09100342 0.121569 0.466667 0.705882 1
54.63700104 569.94201660 474.23300171 0.121569 0.466667 0.705882 1
54.62500000 569.60900879 474.30801392 0.121569 0.466667 0.705882 1
54.35900116 569.52301025 474.00799561 0.121569 0.466667 0.705882 1
54.50099945 569.64501953 474.36700439 0.121569 0.466667 0.705882 1
54.55799866 569.71502686 474.32101440 0.121569 0.466667 0.705882 1
54.55599976 569.67401123 474.33200073 0.121569 0.466667 0.705882 1
54.28799820 569.38397217 474.16000366 0.121569 0.466667 0.705882 1
54.55300140 569.65301514 474.37399292 0.121569 0.466667 0.705882 1
54.74900055 569.55200195 474.07299805 0.121569 0.466667 0.705882 1
54.57099915 569.62799072 474.33401489 0.121569 0.466667 0.705882 1
54.58100128 569.79302979 474.04699707 0.121569 0.466667 0.705882 1
54.60499954 569.75897217 474.48300171 0.121569 0.466667 0.705882 1
54.73400116 569.24102783 474.29800415 0.121569 0.466667 0.705882 1
54.72900009 569.45697021 474.75900269 0.121569 0.466667 0.705882 1
54.85400009 569.81097412 474.11099243 0.121569 0.466667 0.705882 1
54.59799957 569.76898193 474.54800415 0.121569 0.466667 0.705882 1
54.67699814 569.88598633 474.54800415 0.121569 0.466667 0.705882 1
54.67699814 569.48101807 474.51501465 0.121569 0.466667 0.705882 1
54.55199814 569.71502686 474.47198486 0.121569 0.466667 0.705882 1
54.57500076 569.91497803 474.61898804 0.121569 0.466667 0.705882 1
54.59999847 569.94000244 474.75799561 0.121569 0.466667 0.705882 1
54.58900070 569.89599609 474.74099731 0.121569 0.466667 0.705882 1
54.60400009 569.81701660 474.52200317 0.121569 0.466667 0.705882 1
54.59600067 569.71502686 474.53298950 0.121569 0.466667 0.705882 1
55.22900009 569.75201416 474.11300659 0.121569 0.466667 0.705882 1
55.36899948 569.66699219 474.14001465 0.121569 0.466667 0.705882 1
54.65700150 569.97497559 474.77200317 0.121569 0.466667 0.705882 1
55.30799866 569.71398926 474.12100220 0.121569 0.466667 0.705882 1
55.46599960 569.60302734 474.39498901 0.121569 0.466667 0.705882 1
55.41799927 569.51800537 474.33700562 0.121569 0.466667 0.705882 1
55.14199829 569.75598145 474.04800415 0.121569 0.466667 0.705882 1
55.70199966 569.77398682 474.22198486 0.121569 0.466667 0.705882 1
55.71400070 569.68103027 474.24899292 0.121569 0.466667 0.705882 1
54.66600037 569.36999512 474.17999268 0.121569 0.466667 0.705882 1
54.59500122 569.54901123 474.20498657 0.121569 0.466667 0.705882 1
55.39699936 569.64300537 474.47100830 0.121569 0.466667 0.705882 1
55.43000031 569.59399414 474.43798828 0.121569 0.466667 0.705882 1
55.21599960 569.82897949 474.43301392 0.121569 0.466667 0.705882 1
55.78499985 569.67498779 474.30099487 0.121569 0.466667 0.705882 1
55.76200104 569.73901367 474.31600952 0.121569 0.466667 0.705882 1
55.73300171 569.81701660 474.44601440 0.121569 0.466667 0.705882 1
55.46500015 569.88201904 474.00399780 0.121569 0.466667 0.705882 1
55.70700073 569.90100098 474.49600220 0.121569 0.466667 0.705882 1
55.78799820 569.71002197 474.23901367 0.121569 0.466667 0.705882 1
55.57199860 569.64801025 474.26300049 0.121569 0.466667 0.705882 1
55.25899887 569.82598877 474.44900513 0.121569 0.466667 0.705882 1
55.40999985 569.73901367 474.23498535 0.121569 0.466667 0.705882 1
55.36700058 569.63500977 474.65701294 0.121569 0.466667 0.705882 1
55.88100052 569.97698975 474.04098511 0.121569 0.466667 0.705882 1
55.36199951 569.59600830 474.42001343 0.121569 0.466667 0.705882 1
55.27099991 569.75598145 474.77301025 0.121569 0.466667 0.705882 1
55.21500015 569.83099365 474.58898926 0.121569 0.466667 0.705882 1
55.23199844 569.69396973 474.79598999 0.121569 0.466667 0.705882 1
55.72200012 569.91198730 474.53601074 0.121569 0.466667 0.705882 1
55.72900009 569.79101563 474.51199341 0.121569 0.466667 0.705882 1
55.20999908 569.89697266 474.66299438 0.121569 0.466667 0.705882 1
55.70199966 569.86700439 474.56201172 0.121569 0.466667 0.705882 1
53.34700012 570.09802246 474.00399780 0.121569 0.466667 0.705882 1
52.43099976 571.46600342 474.03799438 0.121569 0.466667 0.705882 1
52.39899826 571.46502686 474.03298950 0.121569 0.466667 0.705882 1
52.34099960 571.56201172 474.11898804 0.121569 0.466667 0.705882 1
53.89300156 571.86199951 474.08801270 0.121569 0.466667 0.705882 1
53.90399933 571.94500732 474.20498657 0.121569 0.466667 0.705882 1
53.85599899 571.91497803 474.24301147 0.121569 0.466667 0.705882 1
53.94599915 571.84197998 474.05599976 0.121569 0.466667 0.705882 1
52.48799896 571.47900391 474.04501343 0.121569 0.466667 0.705882 1
53.76399994 571.36297607 474.04901123 0.121569 0.466667 0.705882 1
53.84999847 571.94799805 474.27398682 0.121569 0.466667 0.705882 1
52.25699997 571.55603027 474.04800415 0.121569 0.466667 0.705882 1
54.34199905 570.30798340 474.14300537 0.121569 0.466667 0.705882 1
54.72200012 570.18499756 474.34298706 0.121569 0.466667 0.705882 1
55.19400024 570.57800293 474.17300415 0.121569 0.466667 0.705882 1
55.40100098 570.32702637 474.20098877 0.121569 0.466667 0.705882 1
55.22600174 570.53198242 474.31500244 0.121569 0.466667 0.705882 1
55.38600159 570.27301025 474.22698975 0.121569 0.466667 0.705882 1
55.85599899 570.06402588 474.09899902 0.121569 0.466667 0.705882 1
55.32899857 570.23498535 474.10900879 0.121569 0.466667 0.705882 1
55.51399994 570.64599609 474.06399536 0.121569 0.466667 0.705882 1
55.49200058 570.62402344 474.06399536 0.121569 0.466667 0.705882 1
55.53300095 570.41900635 474.01998901 0.121569 0.466667 0.705882 1
55.44800186 570.29302979 474.03900146 0.121569 0.466667 0.705882 1
55.40999985 570.51702881 474.03601074 0.121569 0.466667 0.705882 1
54.05799866 571.88702393 474.16400146 0.121569 0.466667 0.705882 1
54.12400055 571.94500732 474.29901123 0.121569 0.466667 0.705882 1
55.21200180 570.65802002 474.51300049 0.121569 0.466667 0.705882 1
51.87900162 572.61901855 472.03799438 0.121569 0.466667 0.705882 1
51.86999893 572.81896973 472.09201050 0.121569 0.466667 0.705882 1
51.81399918 572.76702881 472.18499756 0.121569 0.466667 0.705882 1
51.78499985 572.01599121 472.72399902 0.121569 0.466667 0.705882 1
51.85900116 572.92999268 472.08200073 0.121569 0.466667 0.705882 1
51.88899994 572.14801025 472.70001221 0.121569 0.466667 0.705882 1
51.89300156 572.69097900 472.03399658 0.121569 0.466667 0.705882 1
51.95299911 572.09899902 472.64099121 0.121569 0.466667 0.705882 1
51.88999939 572.09497070 472.71701050 0.121569 0.466667 0.705882 1
51.80500031 572.03302002 472.71398926 0.121569 0.466667 0.705882 1
51.66099930 572.17602539 472.78399658 0.121569 0.466667 0.705882 1
51.75099945 572.07202148 472.71398926 0.121569 0.466667 0.705882 1
51.74599838 572.77001953 472.52398682 0.121569 0.466667 0.705882 1
51.66600037 572.66601563 472.78799438 0.121569 0.466667 0.705882 1
51.72299957 572.81799316 472.55099487 0.121569 0.466667 0.705882 1
51.87799835 572.85900879 472.06698608 0.121569 0.466667 0.705882 1
51.85900116 572.97698975 472.10998535 0.121569 0.466667 0.705882 1
51.72900009 572.11102295 472.72799683 0.121569 0.466667 0.705882 1
51.73699951 572.84600830 472.53900146 0.121569 0.466667 0.705882 1
51.71300125 572.83502197 472.59899902 0.121569 0.466667 0.705882 1
51.88100052 573.20898438 472.45599365 0.121569 0.466667 0.705882 1
51.78699875 573.26898193 472.43200684 0.121569 0.466667 0.705882 1
51.89400101 573.24401855 472.33200073 0.121569 0.466667 0.705882 1
51.76599884 573.30200195 472.44900513 0.121569 0.466667 0.705882 1
51.64199829 573.22601318 472.18499756 0.121569 0.466667 0.705882 1
51.92499924 573.46002197 472.47799683 0.121569 0.466667 0.705882 1
51.82199860 573.00402832 472.27398682 0.121569 0.466667 0.705882 1
51.59899902 573.01702881 472.00601196 0.121569 0.466667 0.705882 1
51.83300018 573.57800293 472.49398804 0.121569 0.466667 0.705882 1
51.73899841 573.25598145 472.50100708 0.121569 0.466667 0.705882 1
51.89599991 573.19500732 472.55899048 0.121569 0.466667 0.705882 1
51.93199921 573.49102783 472.72198486 0.121569 0.466667 0.705882 1
51.74700165 573.15600586 472.76998901 0.121569 0.466667 0.705882 1
51.88000107 573.22302246 472.89001465 0.121569 0.466667 0.705882 1
51.91099930 573.21801758 472.67700195 0.121569 0.466667 0.705882 1
51.72800064 573.27502441 472.54098511 0.121569 0.466667 0.705882 1
51.97800064 573.23400879 472.61401367 0.121569 0.466667 0.705882 1
51.99100113 573.27301025 472.95800781 0.121569 0.466667 0.705882 1
51.97499847 573.34301758 472.64099121 0.121569 0.466667 0.705882 1
51.93600082 573.35601807 472.73999023 0.121569 0.466667 0.705882 1
51.95700073 573.32501221 472.64199829 0.121569 0.466667 0.705882 1
51.91299820 573.60400391 472.52700806 0.121569 0.466667 0.705882 1
51.89300156 573.71398926 472.70300293 0.121569 0.466667 0.705882 1
51.60200119 573.84997559 472.53698730 0.121569 0.466667 0.705882 1
51.69699860 573.87799072 472.58200073 0.121569 0.466667 0.705882 1
51.93299866 573.49298096 472.42199707 0.121569 0.466667 0.705882 1
51.68600082 573.84100342 472.58200073 0.121569 0.466667 0.705882 1
51.94800186 573.63800049 472.67098999 0.121569 0.466667 0.705882 1
51.63600159 573.88299561 472.62701416 0.121569 0.466667 0.705882 1
51.73699951 573.98101807 472.74398804 0.121569 0.466667 0.705882 1
51.65100098 573.86499023 472.74099731 0.121569 0.466667 0.705882 1
51.65499878 573.88800049 472.59500122 0.121569 0.466667 0.705882 1
51.89400101 573.59002686 472.49899292 0.121569 0.466667 0.705882 1
51.72000122 573.88500977 472.62399292 0.121569 0.466667 0.705882 1
51.88999939 573.68200684 472.62399292 0.121569 0.466667 0.705882 1
51.89899826 573.66699219 472.88101196 0.121569 0.466667 0.705882 1
51.73400116 573.94598389 472.71798706 0.121569 0.466667 0.705882 1
51.91299820 573.74499512 472.73599243 0.121569 0.466667 0.705882 1
51.65499878 573.85400391 472.60501099 0.121569 0.466667 0.705882 1
51.85599899 573.73101807 472.84500122 0.121569 0.466667 0.705882 1
51.83900070 573.83697510 472.63699341 0.121569 0.466667 0.705882 1
51.84600067 573.70397949 472.88198853 0.121569 0.466667 0.705882 1
51.74399948 573.89202881 472.93399048 0.121569 0.466667 0.705882 1
51.63100052 573.89001465 472.76699829 0.121569 0.466667 0.705882 1
51.68799973 573.84100342 472.50100708 0.121569 0.466667 0.705882 1
51.73899841 573.89801025 472.84399414 0.121569 0.466667 0.705882 1
51.75000000 573.92199707 472.68701172 0.121569 0.466667 0.705882 1
51.96599960 572.02099609 473.35501099 0.121569 0.466667 0.705882 1
51.88299942 572.05902100 473.41000366 0.121569 0.466667 0.705882 1
51.95399857 572.04101563 473.39898682 0.121569 0.466667 0.705882 1
51.89899826 572.16497803 473.43200684 0.121569 0.466667 0.705882 1
51.91799927 572.05200195 473.38800049 0.121569 0.466667 0.705882 1
51.90299988 572.02301025 473.38900757 0.121569 0.466667 0.705882 1
51.62900162 573.85400391 472.63598633 0.121569 0.466667 0.705882 1
51.88199997 572.10900879 473.34600830 0.121569 0.466667 0.705882 1
51.87599945 572.00402832 473.46200562 0.121569 0.466667 0.705882 1
51.86500168 572.19000244 473.54699707 0.121569 0.466667 0.705882 1
51.85300064 572.21301270 473.58499146 0.121569 0.466667 0.705882 1
51.87699890 572.22198486 473.54901123 0.121569 0.466667 0.705882 1
51.74399948 572.34497070 473.69100952 0.121569 0.466667 0.705882 1
51.86500168 572.24401855 473.59298706 0.121569 0.466667 0.705882 1
51.79499817 572.30902100 473.66598511 0.121569 0.466667 0.705882 1
51.81399918 572.27801514 473.64099121 0.121569 0.466667 0.705882 1
51.84899902 572.26898193 473.62899780 0.121569 0.466667 0.705882 1
51.93600082 572.01898193 473.36099243 0.121569 0.466667 0.705882 1
51.72399902 572.37701416 473.71398926 0.121569 0.466667 0.705882 1
51.83399963 572.24200439 473.61700439 0.121569 0.466667 0.705882 1
51.73600006 572.09899902 473.89898682 0.121569 0.466667 0.705882 1
51.74000168 572.39300537 473.68301392 0.121569 0.466667 0.705882 1
51.70800018 572.40600586 473.74499512 0.121569 0.466667 0.705882 1
51.80500031 572.09497070 473.83898926 0.121569 0.466667 0.705882 1
51.66899872 572.41802979 473.75900269 0.121569 0.466667 0.705882 1
51.69200134 572.38397217 473.73999023 0.121569 0.466667 0.705882 1
51.64799881 572.45800781 473.77398682 0.121569 0.466667 0.705882 1
51.63100052 572.38702393 473.76199341 0.121569 0.466667 0.705882 1
51.75299835 572.12200928 473.87399292 0.121569 0.466667 0.705882 1
51.64899826 572.40301514 473.77700806 0.121569 0.466667 0.705882 1
51.66699982 572.37298584 473.70800781 0.121569 0.466667 0.705882 1
51.84099960 572.28698730 473.75698853 0.121569 0.466667 0.705882 1
51.76800156 572.30499268 473.67999268 0.121569 0.466667 0.705882 1
51.84500122 572.27697754 473.69699097 0.121569 0.466667 0.705882 1
51.77000046 572.34997559 473.99798584 0.121569 0.466667 0.705882 1
51.72999954 572.05902100 473.90301514 0.121569 0.466667 0.705882 1
51.68999863 572.43402100 473.77899170 0.121569 0.466667 0.705882 1
51.62699890 572.49200439 473.79598999 0.121569 0.466667 0.705882 1
51.71799850 573.89300537 473.00201416 0.121569 0.466667 0.705882 1
51.83000183 573.16400146 473.04199219 0.121569 0.466667 0.705882 1
51.70299911 573.91302490 473.03698730 0.121569 0.466667 0.705882 1
51.82500076 573.90100098 473.12600708 0.121569 0.466667 0.705882 1
51.74599838 573.55401611 473.06100464 0.121569 0.466667 0.705882 1
51.66799927 573.96398926 473.26699829 0.121569 0.466667 0.705882 1
51.68500137 573.93597412 473.07501221 0.121569 0.466667 0.705882 1
51.90999985 573.30700684 473.11099243 0.121569 0.466667 0.705882 1
51.93299866 573.27801514 473.88900757 0.121569 0.466667 0.705882 1
51.98300171 573.24298096 473.86599731 0.121569 0.466667 0.705882 1
51.74100113 573.81799316 473.16500854 0.121569 0.466667 0.705882 1
51.74700165 573.80603027 473.26699829 0.121569 0.466667 0.705882 1
51.83900070 573.78601074 473.19000244 0.121569 0.466667 0.705882 1
51.70299911 573.91302490 473.27600098 0.121569 0.466667 0.705882 1
51.64300156 573.96099854 473.13299561 0.121569 0.466667 0.705882 1
51.94800186 574.47100830 472.25601196 0.121569 0.466667 0.705882 1
51.89599991 574.68402100 472.07598877 0.121569 0.466667 0.705882 1
51.84099960 574.72497559 472.11599731 0.121569 0.466667 0.705882 1
51.79100037 574.51000977 472.13000488 0.121569 0.466667 0.705882 1
51.87400055 574.64501953 472.09600830 0.121569 0.466667 0.705882 1
51.97399902 574.32501221 472.49600220 0.121569 0.466667 0.705882 1
51.84400177 574.68200684 472.09899902 0.121569 0.466667 0.705882 1
51.81900024 574.82598877 472.22601318 0.121569 0.466667 0.705882 1
51.94100189 574.28900146 472.44000244 0.121569 0.466667 0.705882 1
51.83200073 574.80798340 472.18499756 0.121569 0.466667 0.705882 1
51.79899979 574.47900391 472.22601318 0.121569 0.466667 0.705882 1
51.82400131 574.84997559 472.24700928 0.121569 0.466667 0.705882 1
51.78900146 574.79302979 472.20700073 0.121569 0.466667 0.705882 1
51.72700119 574.61401367 472.22900391 0.121569 0.466667 0.705882 1
51.81900024 574.78802490 472.17300415 0.121569 0.466667 0.705882 1
51.92800140 574.68200684 472.05801392 0.121569 0.466667 0.705882 1
51.85699844 574.33001709 472.54598999 0.121569 0.466667 0.705882 1
51.92800140 574.34698486 472.51501465 0.121569 0.466667 0.705882 1
51.72700119 574.15899658 472.89401245 0.121569 0.466667 0.705882 1
51.74800110 574.13098145 472.87100220 0.121569 0.466667 0.705882 1
51.84500122 574.30401611 472.56600952 0.121569 0.466667 0.705882 1
51.76499939 574.10797119 472.83499146 0.121569 0.466667 0.705882 1
51.73899841 574.06298828 472.92098999 0.121569 0.466667 0.705882 1
51.89899826 574.19201660 472.98901367 0.121569 0.466667 0.705882 1
51.75000000 574.00598145 472.77200317 0.121569 0.466667 0.705882 1
51.61800003 574.33898926 472.78201294 0.121569 0.466667 0.705882 1
51.99300003 574.98901367 472.80999756 0.121569 0.466667 0.705882 1
51.84700012 574.26202393 472.98400879 0.121569 0.466667 0.705882 1
51.98199844 575.30902100 472.22601318 0.121569 0.466667 0.705882 1
51.99300003 575.33099365 472.21600342 0.121569 0.466667 0.705882 1
51.84700012 574.19000244 472.98498535 0.121569 0.466667 0.705882 1
51.80599976 574.16601563 472.89300537 0.121569 0.466667 0.705882 1
51.65599823 574.02099609 473.00698853 0.121569 0.466667 0.705882 1
51.73199844 574.19000244 473.15301514 0.121569 0.466667 0.705882 1
51.70000076 574.03698730 473.19100952 0.121569 0.466667 0.705882 1
51.74499893 574.09301758 472.82400513 0.121569 0.466667 0.705882 1
51.98099899 574.20202637 473.06799316 0.121569 0.466667 0.705882 1
51.68000031 574.02899170 473.35800171 0.121569 0.466667 0.705882 1
51.91899872 574.23297119 473.08898926 0.121569 0.466667 0.705882 1
51.67200089 574.07598877 473.19601440 0.121569 0.466667 0.705882 1
51.92599869 574.19702148 473.00900269 0.121569 0.466667 0.705882 1
51.84999847 574.18103027 473.07699585 0.121569 0.466667 0.705882 1
51.63100052 574.29498291 473.10699463 0.121569 0.466667 0.705882 1
51.77199936 572.30200195 474.17001343 0.121569 0.466667 0.705882 1
51.80899811 572.28997803 474.05398560 0.121569 0.466667 0.705882 1
51.76200104 572.41699219 474.01901245 0.121569 0.466667 0.705882 1
51.75899887 572.51800537 474.06298828 0.121569 0.466667 0.705882 1
52.33599854 573.92199707 473.05999756 0.121569 0.466667 0.705882 1
51.93199921 573.14099121 474.32400513 0.121569 0.466667 0.705882 1
52.99100113 573.27197266 475.25500488 0.121569 0.466667 0.705882 1
53.11999893 572.22601318 472.98400879 0.121569 0.466667 0.705882 1
53.83000183 572.94598389 472.32101440 0.121569 0.466667 0.705882 1
53.18799973 572.14202881 472.99301147 0.121569 0.466667 0.705882 1
52.09299850 572.70800781 472.38299561 0.121569 0.466667 0.705882 1
52.03799820 572.97900391 472.26501465 0.121569 0.466667 0.705882 1
53.16299820 572.13500977 472.99301147 0.121569 0.466667 0.705882 1
53.29100037 572.04901123 472.86401367 0.121569 0.466667 0.705882 1
53.32600021 572.03198242 472.83999634 0.121569 0.466667 0.705882 1
53.18899918 572.10101318 472.97399902 0.121569 0.466667 0.705882 1
53.19200134 572.13897705 472.98800659 0.121569 0.466667 0.705882 1
53.25000000 572.10699463 472.92300415 0.121569 0.466667 0.705882 1
53.43199921 572.14697266 472.94299316 0.121569 0.466667 0.705882 1
53.23099899 572.13201904 472.95599365 0.121569 0.466667 0.705882 1
53.48300171 572.17199707 472.91799927 0.121569 0.466667 0.705882 1
53.40900040 572.17297363 472.97299194 0.121569 0.466667 0.705882 1
53.25099945 572.05700684 472.89498901 0.121569 0.466667 0.705882 1
53.21099854 572.11700439 472.95199585 0.121569 0.466667 0.705882 1
53.83900070 572.92999268 472.34600830 0.121569 0.466667 0.705882 1
53.23400116 572.08300781 472.93099976 0.121569 0.466667 0.705882 1
53.27000046 572.08300781 472.88900757 0.121569 0.466667 0.705882 1
53.31299973 572.06701660 472.89199829 0.121569 0.466667 0.705882 1
53.44200134 572.03399658 472.87200928 0.121569 0.466667 0.705882 1
53.77899933 572.24798584 472.92800903 0.121569 0.466667 0.705882 1
52.73500061 573.80102539 472.05499268 0.121569 0.466667 0.705882 1
52.61600113 573.25299072 472.08599854 0.121569 0.466667 0.705882 1
53.79600143 572.08398438 472.54598999 0.121569 0.466667 0.705882 1
52.66899872 573.09301758 472.03799438 0.121569 0.466667 0.705882 1
53.41099930 572.12902832 472.94198608 0.121569 0.466667 0.705882 1
53.76699829 572.11999512 472.56201172 0.121569 0.466667 0.705882 1
52.51399994 573.09197998 472.17498779 0.121569 0.466667 0.705882 1
52.66999817 573.13897705 472.03201294 0.121569 0.466667 0.705882 1
53.25799942 572.07598877 472.90301514 0.121569 0.466667 0.705882 1
52.31999969 573.36499023 472.73999023 0.121569 0.466667 0.705882 1
52.05199814 573.20397949 472.71301270 0.121569 0.466667 0.705882 1
52.59799957 573.23602295 472.08801270 0.121569 0.466667 0.705882 1
53.69900131 572.15197754 472.93200684 0.121569 0.466667 0.705882 1
52.39500046 573.43103027 472.68899536 0.121569 0.466667 0.705882 1
52.59700012 573.48901367 472.16198730 0.121569 0.466667 0.705882 1
52.12300110 573.03900146 472.29098511 0.121569 0.466667 0.705882 1
53.77199936 572.15600586 472.98199463 0.121569 0.466667 0.705882 1
53.95800018 572.01800537 472.96099854 0.121569 0.466667 0.705882 1
52.58700180 573.49700928 472.30398560 0.121569 0.466667 0.705882 1
52.54100037 573.52697754 472.29901123 0.121569 0.466667 0.705882 1
52.02899933 573.34997559 472.82299805 0.121569 0.466667 0.705882 1
52.50600052 573.49102783 472.61300659 0.121569 0.466667 0.705882 1
52.43999863 573.74700928 472.72500610 0.121569 0.466667 0.705882 1
52.38600159 573.44201660 472.82000732 0.121569 0.466667 0.705882 1
52.48400116 573.51800537 472.71499634 0.121569 0.466667 0.705882 1
52.12500000 573.88800049 472.86599731 0.121569 0.466667 0.705882 1
