57.48899841 570.94000244 460.65399170 0.121569 0.466667 0.705882 1
57.49200058 570.93597412 460.69198608 0.121569 0.466667 0.705882 1
57.45700073 570.91900635 460.53601074 0.121569 0.466667 0.705882 1
57.40700150 570.71697998 460.76901245 0.121569 0.466667 0.705882 1
57.39699936 570.73101807 460.84201050 0.121569 0.466667 0.705882 1
57.43500137 570.89202881 460.64898682 0.121569 0.466667 0.705882 1
57.39599991 570.73101807 460.95800781 0.121569 0.466667 0.705882 1
57.38100052 570.74700928 460.99301147 0.121569 0.466667 0.705882 1
57.45299911 570.92297363 460.68600464 0.121569 0.466667 0.705882 1
57.38399887 570.74499512 460.91299438 0.121569 0.466667 0.705882 1
57.45600128 570.92199707 460.76501465 0.121569 0.466667 0.705882 1
57.37400055 570.78399658 460.86700439 0.121569 0.466667 0.705882 1
57.48799896 570.97399902 460.64199829 0.121569 0.466667 0.705882 1
57.38999939 570.78698730 460.91699219 0.121569 0.466667 0.705882 1
57.38999939 570.78900146 460.87500000 0.121569 0.466667 0.705882 1
57.47200012 570.95397949 460.91900635 0.121569 0.466667 0.705882 1
57.38700104 570.79101563 460.83401489 0.121569 0.466667 0.705882 1
57.39699936 570.79901123 460.96200562 0.121569 0.466667 0.705882 1
57.44300079 570.93298340 460.95498657 0.121569 0.466667 0.705882 1
57.53799820 570.65002441 460.60598755 0.121569 0.466667 0.705882 1
57.56700134 570.66198730 460.67199707 0.121569 0.466667 0.705882 1
57.38199997 570.79699707 460.99099731 0.121569 0.466667 0.705882 1
57.46699905 570.96099854 460.95300293 0.121569 0.466667 0.705882 1
57.52999878 570.94799805 460.50799561 0.121569 0.466667 0.705882 1
57.52700043 570.95202637 460.54501343 0.121569 0.466667 0.705882 1
57.57099915 570.95697021 460.51901245 0.121569 0.466667 0.705882 1
57.58100128 570.94702148 460.60299683 0.121569 0.466667 0.705882 1
57.52000046 570.95800781 460.73699951 0.121569 0.466667 0.705882 1
57.68099976 570.88299561 460.72399902 0.121569 0.466667 0.705882 1
57.65700150 570.92102051 460.60598755 0.121569 0.466667 0.705882 1
57.64500046 570.69500732 460.84100342 0.121569 0.466667 0.705882 1
57.68299866 570.88098145 460.57101440 0.121569 0.466667 0.705882 1
57.63999939 570.65399170 460.56201172 0.121569 0.466667 0.705882 1
57.52399826 570.95397949 460.66000366 0.121569 0.466667 0.705882 1
57.65000153 570.71099854 460.76098633 0.121569 0.466667 0.705882 1
57.64599991 570.69702148 460.76901245 0.121569 0.466667 0.705882 1
57.64699936 570.69702148 460.98498535 0.121569 0.466667 0.705882 1
57.51900101 570.95898438 460.92999268 0.121569 0.466667 0.705882 1
57.56600189 570.96197510 460.86700439 0.121569 0.466667 0.705882 1
57.55599976 570.97198486 460.98098755 0.121569 0.466667 0.705882 1
57.64799881 570.70001221 460.91198730 0.121569 0.466667 0.705882 1
57.65100098 570.93499756 460.83499146 0.121569 0.466667 0.705882 1
57.58399963 570.94598389 460.56500244 0.121569 0.466667 0.705882 1
57.67200089 570.87402344 460.96301270 0.121569 0.466667 0.705882 1
57.51800156 570.96002197 460.96899414 0.121569 0.466667 0.705882 1
57.68600082 570.88000488 460.80499268 0.121569 0.466667 0.705882 1
57.56600189 570.65502930 460.74398804 0.121569 0.466667 0.705882 1
57.25400162 571.78900146 460.90798950 0.121569 0.466667 0.705882 1
57.29600143 570.26300049 461.20999146 0.121569 0.466667 0.705882 1
57.39300156 570.73400879 461.03601074 0.121569 0.466667 0.705882 1
57.41099930 570.71502686 461.12600708 0.121569 0.466667 0.705882 1
57.40299988 570.72601318 461.23901367 0.121569 0.466667 0.705882 1
57.39199829 570.73699951 461.07400513 0.121569 0.466667 0.705882 1
57.36000061 570.82000732 461.09799194 0.121569 0.466667 0.705882 1
57.38999939 570.73699951 461.15301514 0.121569 0.466667 0.705882 1
57.39599991 570.73101807 461.19500732 0.121569 0.466667 0.705882 1
57.40800095 570.87298584 461.23699951 0.121569 0.466667 0.705882 1
57.37900162 570.79797363 461.26400757 0.121569 0.466667 0.705882 1
57.38499832 570.79400635 461.30599976 0.121569 0.466667 0.705882 1
57.38800049 570.88800049 461.27600098 0.121569 0.466667 0.705882 1
57.39500046 570.83502197 461.24398804 0.121569 0.466667 0.705882 1
57.40499878 570.87402344 461.35400391 0.121569 0.466667 0.705882 1
57.38800049 570.84197998 461.36099243 0.121569 0.466667 0.705882 1
57.44300079 570.93298340 461.34799194 0.121569 0.466667 0.705882 1
57.47800064 570.95001221 461.31201172 0.121569 0.466667 0.705882 1
57.40499878 570.87200928 461.39498901 0.121569 0.466667 0.705882 1
57.38299942 570.84600830 461.39700317 0.121569 0.466667 0.705882 1
57.39899826 570.88000488 461.31399536 0.121569 0.466667 0.705882 1
57.39799881 570.88098145 461.43099976 0.121569 0.466667 0.705882 1
57.44499969 570.93402100 461.39001465 0.121569 0.466667 0.705882 1
57.41899872 570.90997314 461.42300415 0.121569 0.466667 0.705882 1
57.47000122 570.95898438 461.42999268 0.121569 0.466667 0.705882 1
57.41699982 570.91101074 461.34201050 0.121569 0.466667 0.705882 1
57.40700150 570.87200928 461.27801514 0.121569 0.466667 0.705882 1
57.41199875 570.71697998 461.28399658 0.121569 0.466667 0.705882 1
57.47900009 570.94799805 461.39401245 0.121569 0.466667 0.705882 1
57.41999817 570.90698242 461.38500977 0.121569 0.466667 0.705882 1
57.37799835 570.84997559 461.43499756 0.121569 0.466667 0.705882 1
57.56999969 570.98199463 461.00500488 0.121569 0.466667 0.705882 1
57.55199814 570.97399902 461.01699829 0.121569 0.466667 0.705882 1
57.54199982 570.67102051 461.19601440 0.121569 0.466667 0.705882 1
57.56999969 570.68298340 461.23901367 0.121569 0.466667 0.705882 1
57.65100098 570.72399902 461.19699097 0.121569 0.466667 0.705882 1
57.44900131 570.93103027 461.46899414 0.121569 0.466667 0.705882 1
57.50699997 570.96899414 461.16299438 0.121569 0.466667 0.705882 1
57.55500031 570.97100830 461.05801392 0.121569 0.466667 0.705882 1
57.65100098 570.72698975 461.26800537 0.121569 0.466667 0.705882 1
57.56700134 570.96002197 461.14199829 0.121569 0.466667 0.705882 1
57.51300049 570.96697998 461.20199585 0.121569 0.466667 0.705882 1
57.64199829 570.71697998 461.27801514 0.121569 0.466667 0.705882 1
57.56000137 570.96600342 461.29901123 0.121569 0.466667 0.705882 1
57.51599884 570.96002197 461.48498535 0.121569 0.466667 0.705882 1
57.37900162 570.74798584 461.58599854 0.121569 0.466667 0.705882 1
57.57199860 570.98199463 461.31399536 0.121569 0.466667 0.705882 1
57.56800079 570.96099854 461.18301392 0.121569 0.466667 0.705882 1
57.36000061 570.81799316 461.61199951 0.121569 0.466667 0.705882 1
57.65000153 570.72100830 461.33801270 0.121569 0.466667 0.705882 1
57.38199997 570.74597168 461.74700928 0.121569 0.466667 0.705882 1
57.35699844 570.77099609 461.61700439 0.121569 0.466667 0.705882 1
57.41899872 570.90802002 461.50399780 0.121569 0.466667 0.705882 1
57.37400055 570.85900879 461.59298706 0.121569 0.466667 0.705882 1
57.53799820 570.67199707 461.30099487 0.121569 0.466667 0.705882 1
57.38999939 570.89099121 461.58801270 0.121569 0.466667 0.705882 1
57.49000168 570.97399902 461.58099365 0.121569 0.466667 0.705882 1
57.57199860 570.68402100 461.16598511 0.121569 0.466667 0.705882 1
57.41299820 570.91400146 461.58099365 0.121569 0.466667 0.705882 1
57.44499969 570.93200684 461.58898926 0.121569 0.466667 0.705882 1
57.47700119 570.95001221 461.51098633 0.121569 0.466667 0.705882 1
57.47800064 570.95300293 461.63198853 0.121569 0.466667 0.705882 1
57.47800064 570.95202637 461.58999634 0.121569 0.466667 0.705882 1
57.36899948 570.81097412 461.57699585 0.121569 0.466667 0.705882 1
57.36899948 570.80902100 461.82000732 0.121569 0.466667 0.705882 1
57.37500000 570.80700684 461.77999878 0.121569 0.466667 0.705882 1
57.36700058 570.81500244 461.85598755 0.121569 0.466667 0.705882 1
57.37799835 570.75299072 461.78500366 0.121569 0.466667 0.705882 1
57.38499832 570.84698486 461.75799561 0.121569 0.466667 0.705882 1
57.41199875 570.74102783 461.86300659 0.121569 0.466667 0.705882 1
57.45199966 570.92700195 461.75100708 0.121569 0.466667 0.705882 1
57.38299942 570.84698486 461.83898926 0.121569 0.466667 0.705882 1
57.48400116 570.94702148 461.71398926 0.121569 0.466667 0.705882 1
57.36299896 570.76300049 461.86099243 0.121569 0.466667 0.705882 1
57.40200043 570.87902832 461.75201416 0.121569 0.466667 0.705882 1
57.42599869 570.90002441 461.74798584 0.121569 0.466667 0.705882 1
57.40499878 570.87597656 461.71499634 0.121569 0.466667 0.705882 1
57.48199844 570.94396973 461.75601196 0.121569 0.466667 0.705882 1
57.39300156 570.88702393 461.87100220 0.121569 0.466667 0.705882 1
57.44400024 570.93701172 461.86700439 0.121569 0.466667 0.705882 1
57.41600037 570.91302490 461.86199951 0.121569 0.466667 0.705882 1
57.44499969 570.93200684 461.82998657 0.121569 0.466667 0.705882 1
57.37099838 570.85797119 461.91400146 0.121569 0.466667 0.705882 1
57.36800003 570.76098633 461.90200806 0.121569 0.466667 0.705882 1
57.38199997 570.84698486 461.71701050 0.121569 0.466667 0.705882 1
57.36999893 570.75799561 461.98498535 0.121569 0.466667 0.705882 1
57.37400055 570.85400391 461.87399292 0.121569 0.466667 0.705882 1
57.36899948 570.81298828 461.98098755 0.121569 0.466667 0.705882 1
57.36899948 570.75897217 461.82101440 0.121569 0.466667 0.705882 1
57.39500046 570.88702393 461.91198730 0.121569 0.466667 0.705882 1
57.48300171 570.94598389 461.91500854 0.121569 0.466667 0.705882 1
57.36800003 570.80999756 461.93899536 0.121569 0.466667 0.705882 1
57.39199829 570.79302979 461.87200928 0.121569 0.466667 0.705882 1
57.48099899 570.94598389 461.79598999 0.121569 0.466667 0.705882 1
57.40200043 570.88000488 461.95599365 0.121569 0.466667 0.705882 1
57.37200165 570.80798340 461.90100098 0.121569 0.466667 0.705882 1
57.42200089 570.90502930 461.94799805 0.121569 0.466667 0.705882 1
57.48199844 570.94897461 461.95700073 0.121569 0.466667 0.705882 1
57.44699860 570.93200684 461.95098877 0.121569 0.466667 0.705882 1
57.41899872 570.90802002 461.98498535 0.121569 0.466667 0.705882 1
57.47900009 570.95202637 461.87200928 0.121569 0.466667 0.705882 1
57.47999954 570.94897461 461.99499512 0.121569 0.466667 0.705882 1
57.53799820 570.66900635 461.59899902 0.121569 0.466667 0.705882 1
57.39799881 570.88201904 461.99301147 0.121569 0.466667 0.705882 1
57.37699890 570.80297852 461.74099731 0.121569 0.466667 0.705882 1
57.63299942 570.72698975 461.68499756 0.121569 0.466667 0.705882 1
57.50999832 570.96899414 461.59799194 0.121569 0.466667 0.705882 1
57.56700134 570.96197510 461.58099365 0.121569 0.466667 0.705882 1
57.48400116 570.94500732 461.83801270 0.121569 0.466667 0.705882 1
57.50699997 570.97198486 461.63800049 0.121569 0.466667 0.705882 1
57.51599884 570.96197510 461.72299194 0.121569 0.466667 0.705882 1
57.65800095 570.76000977 461.70401001 0.121569 0.466667 0.705882 1
57.41699982 570.90997314 461.90301514 0.121569 0.466667 0.705882 1
57.45000076 570.92700195 461.99398804 0.121569 0.466667 0.705882 1
57.57300186 570.95697021 461.66400146 0.121569 0.466667 0.705882 1
57.64899826 570.71997070 461.83700562 0.121569 0.466667 0.705882 1
57.56800079 570.96002197 461.61898804 0.121569 0.466667 0.705882 1
57.56800079 570.95898438 461.74301147 0.121569 0.466667 0.705882 1
57.65000153 570.72198486 461.90600586 0.121569 0.466667 0.705882 1
57.57099915 570.95800781 461.78201294 0.121569 0.466667 0.705882 1
57.51800156 570.96301270 461.76400757 0.121569 0.466667 0.705882 1
57.51300049 570.96398926 461.80300903 0.121569 0.466667 0.705882 1
57.56800079 570.96002197 461.70199585 0.121569 0.466667 0.705882 1
57.57600021 570.95501709 461.73400879 0.121569 0.466667 0.705882 1
57.45000076 570.93103027 461.91000366 0.121569 0.466667 0.705882 1
57.64699936 570.93200684 461.83300781 0.121569 0.466667 0.705882 1
57.52199936 570.95697021 461.88800049 0.121569 0.466667 0.705882 1
57.51800156 570.96099854 461.92498779 0.121569 0.466667 0.705882 1
57.57600021 570.95501709 461.90600586 0.121569 0.466667 0.705882 1
57.52000046 570.95898438 461.96600342 0.121569 0.466667 0.705882 1
57.57500076 570.95397949 461.98699951 0.121569 0.466667 0.705882 1
57.57400131 570.95300293 461.86499023 0.121569 0.466667 0.705882 1
57.56600189 570.94201660 461.89700317 0.121569 0.466667 0.705882 1
57.36199951 571.33197021 461.21600342 0.121569 0.466667 0.705882 1
57.66699982 571.35797119 461.18099976 0.121569 0.466667 0.705882 1
57.69800186 571.37500000 461.26400757 0.121569 0.466667 0.705882 1
57.44699860 570.93200684 462.03399658 0.121569 0.466667 0.705882 1
57.36999893 570.75897217 462.02801514 0.121569 0.466667 0.705882 1
57.36700058 570.86401367 462.11300659 0.121569 0.466667 0.705882 1
57.37400055 570.80798340 462.02200317 0.121569 0.466667 0.705882 1
57.36899948 570.80999756 462.06298828 0.121569 0.466667 0.705882 1
57.37200165 570.75701904 462.06900024 0.121569 0.466667 0.705882 1
57.38299942 570.84698486 462.00100708 0.121569 0.466667 0.705882 1
57.36199951 570.81701660 462.10000610 0.121569 0.466667 0.705882 1
57.48400116 570.94396973 462.08099365 0.121569 0.466667 0.705882 1
57.37099838 570.85797119 462.07501221 0.121569 0.466667 0.705882 1
57.38700104 570.89099121 462.11099243 0.121569 0.466667 0.705882 1
57.44699860 570.93200684 462.07199097 0.121569 0.466667 0.705882 1
57.37400055 570.85797119 462.16000366 0.121569 0.466667 0.705882 1
57.39899826 570.87799072 462.15899658 0.121569 0.466667 0.705882 1
57.41600037 570.91302490 462.14498901 0.121569 0.466667 0.705882 1
57.37099838 570.80798340 462.14599609 0.121569 0.466667 0.705882 1
57.44100189 570.93597412 462.19400024 0.121569 0.466667 0.705882 1
57.41699982 570.91302490 462.10800171 0.121569 0.466667 0.705882 1
57.41799927 570.91302490 462.18798828 0.121569 0.466667 0.705882 1
57.39400101 570.88500977 462.19699097 0.121569 0.466667 0.705882 1
57.39300156 570.88800049 462.23400879 0.121569 0.466667 0.705882 1
57.48500061 570.94598389 462.03698730 0.121569 0.466667 0.705882 1
57.45399857 570.68902588 462.48599243 0.121569 0.466667 0.705882 1
57.38000107 570.85101318 462.24398804 0.121569 0.466667 0.705882 1
57.45000076 570.92901611 462.15399170 0.121569 0.466667 0.705882 1
57.47200012 570.95501709 462.15399170 0.121569 0.466667 0.705882 1
57.38000107 570.84899902 462.28500366 0.121569 0.466667 0.705882 1
57.37200165 570.85900879 462.36099243 0.121569 0.466667 0.705882 1
57.44400024 570.93298340 462.11099243 0.121569 0.466667 0.705882 1
57.40900040 570.71697998 462.33801270 0.121569 0.466667 0.705882 1
57.47000122 570.95800781 462.19500732 0.121569 0.466667 0.705882 1
57.41299820 570.91802979 462.26599121 0.121569 0.466667 0.705882 1
57.38000107 570.79797363 462.31399536 0.121569 0.466667 0.705882 1
57.37599945 570.80603027 462.35101318 0.121569 0.466667 0.705882 1
57.40800095 570.91900635 462.34600830 0.121569 0.466667 0.705882 1
57.36999893 570.85900879 462.40301514 0.121569 0.466667 0.705882 1
57.39099884 570.89099121 462.31500244 0.121569 0.466667 0.705882 1
57.38999939 570.88800049 462.35900879 0.121569 0.466667 0.705882 1
57.41500092 570.91302490 462.39300537 0.121569 0.466667 0.705882 1
57.37300110 570.80603027 462.47500610 0.121569 0.466667 0.705882 1
57.39699936 570.73297119 462.45401001 0.121569 0.466667 0.705882 1
57.39500046 570.88500977 462.27600098 0.121569 0.466667 0.705882 1
57.37699890 570.80499268 462.39401245 0.121569 0.466667 0.705882 1
57.42100143 570.96099854 462.38500977 0.121569 0.466667 0.705882 1
57.37400055 570.85699463 462.32299805 0.121569 0.466667 0.705882 1
57.43700027 570.94299316 462.43399048 0.121569 0.466667 0.705882 1
57.37400055 570.85699463 462.44799805 0.121569 0.466667 0.705882 1
57.53499985 570.69500732 462.21899414 0.121569 0.466667 0.705882 1
57.44200134 570.98602295 462.46398926 0.121569 0.466667 0.705882 1
57.40700150 570.91998291 462.42800903 0.121569 0.466667 0.705882 1
57.50799942 570.97100830 462.00299072 0.121569 0.466667 0.705882 1
57.39300156 570.88897705 462.44000244 0.121569 0.466667 0.705882 1
57.57300186 570.95001221 462.04800415 0.121569 0.466667 0.705882 1
57.56200027 570.96801758 462.22500610 0.121569 0.466667 0.705882 1
57.58700180 570.97198486 462.19100952 0.121569 0.466667 0.705882 1
57.39300156 570.88598633 462.40200806 0.121569 0.466667 0.705882 1
57.50899887 570.96801758 462.16400146 0.121569 0.466667 0.705882 1
57.57199860 570.95898438 462.06698608 0.121569 0.466667 0.705882 1
57.51800156 570.96301270 462.20901489 0.121569 0.466667 0.705882 1
57.57500076 570.95202637 462.02999878 0.121569 0.466667 0.705882 1
57.63000107 570.95001221 462.31399536 0.121569 0.466667 0.705882 1
57.39300156 570.73797607 462.53399658 0.121569 0.466667 0.705882 1
57.56600189 570.96301270 462.26901245 0.121569 0.466667 0.705882 1
57.40200043 570.72399902 462.62298584 0.121569 0.466667 0.705882 1
57.39400101 570.73297119 462.70098877 0.121569 0.466667 0.705882 1
57.39400101 570.88702393 462.52499390 0.121569 0.466667 0.705882 1
57.39400101 570.73699951 462.66000366 0.121569 0.466667 0.705882 1
57.40200043 570.72601318 462.74899292 0.121569 0.466667 0.705882 1
57.38399887 570.79602051 462.64700317 0.121569 0.466667 0.705882 1
57.39300156 570.78100586 462.73098755 0.121569 0.466667 0.705882 1
57.39699936 570.79901123 462.64099121 0.121569 0.466667 0.705882 1
57.38899994 570.84002686 462.66299438 0.121569 0.466667 0.705882 1
57.40200043 570.87799072 462.65399170 0.121569 0.466667 0.705882 1
57.38000107 570.80102539 462.68600464 0.121569 0.466667 0.705882 1
57.42699814 570.90502930 462.73199463 0.121569 0.466667 0.705882 1
57.38199997 570.79998779 462.72900391 0.121569 0.466667 0.705882 1
57.38600159 570.84399414 462.74499512 0.121569 0.466667 0.705882 1
57.42499924 570.90197754 462.68798828 0.121569 0.466667 0.705882 1
57.49000168 570.94201660 462.70001221 0.121569 0.466667 0.705882 1
57.38600159 570.73999023 462.86700439 0.121569 0.466667 0.705882 1
57.48600006 570.94201660 462.74099731 0.121569 0.466667 0.705882 1
57.39099884 570.84002686 462.70498657 0.121569 0.466667 0.705882 1
57.38800049 570.79302979 462.77600098 0.121569 0.466667 0.705882 1
57.38600159 570.84698486 462.86999512 0.121569 0.466667 0.705882 1
57.38999939 570.84100342 462.78900146 0.121569 0.466667 0.705882 1
57.39599991 570.72998047 462.78900146 0.121569 0.466667 0.705882 1
57.40200043 570.87799072 462.77899170 0.121569 0.466667 0.705882 1
57.41799927 570.91400146 462.80801392 0.121569 0.466667 0.705882 1
57.45800018 570.69097900 463.00000000 0.121569 0.466667 0.705882 1
57.38600159 570.84497070 462.82901001 0.121569 0.466667 0.705882 1
57.45500183 570.92602539 462.69601440 0.121569 0.466667 0.705882 1
57.48199844 570.94799805 462.78201294 0.121569 0.466667 0.705882 1
57.37799835 570.80102539 462.81201172 0.121569 0.466667 0.705882 1
57.37500000 570.80603027 462.97799683 0.121569 0.466667 0.705882 1
57.38100052 570.84997559 462.90798950 0.121569 0.466667 0.705882 1
57.37599945 570.80297852 462.89498901 0.121569 0.466667 0.705882 1
57.37300110 570.80798340 462.93701172 0.121569 0.466667 0.705882 1
57.44400024 570.93402100 462.81600952 0.121569 0.466667 0.705882 1
57.38000107 570.78302002 462.93899536 0.121569 0.466667 0.705882 1
57.44800186 570.93298340 462.73098755 0.121569 0.466667 0.705882 1
57.44400024 570.93499756 462.85598755 0.121569 0.466667 0.705882 1
57.48199844 570.94799805 462.90600586 0.121569 0.466667 0.705882 1
57.48400116 570.94799805 462.86599731 0.121569 0.466667 0.705882 1
57.40299988 570.87799072 462.86401367 0.121569 0.466667 0.705882 1
57.40299988 570.87597656 462.82400513 0.121569 0.466667 0.705882 1
57.48500061 570.94500732 462.95001221 0.121569 0.466667 0.705882 1
57.48199844 570.94799805 462.99200439 0.121569 0.466667 0.705882 1
57.38100052 570.74597168 462.90399170 0.121569 0.466667 0.705882 1
57.40399933 570.87402344 462.94900513 0.121569 0.466667 0.705882 1
57.44200134 570.93798828 462.89498901 0.121569 0.466667 0.705882 1
57.40200043 570.87902832 462.90399170 0.121569 0.466667 0.705882 1
57.43999863 570.93798828 462.94000244 0.121569 0.466667 0.705882 1
57.41500092 570.91699219 462.84799194 0.121569 0.466667 0.705882 1
57.38899994 570.84197998 462.95901489 0.121569 0.466667 0.705882 1
57.43799973 570.94201660 462.97900391 0.121569 0.466667 0.705882 1
57.41699982 570.90997314 462.89498901 0.121569 0.466667 0.705882 1
57.40299988 570.87902832 462.99200439 0.121569 0.466667 0.705882 1
57.52899933 570.95098877 462.71499634 0.121569 0.466667 0.705882 1
57.52899933 570.95001221 462.79699707 0.121569 0.466667 0.705882 1
57.57500076 570.95397949 462.85800171 0.121569 0.466667 0.705882 1
57.53599930 570.94097900 462.67700195 0.121569 0.466667 0.705882 1
57.42100143 570.90802002 462.97900391 0.121569 0.466667 0.705882 1
57.52000046 570.95800781 462.96200562 0.121569 0.466667 0.705882 1
57.51200104 570.96801758 462.91299438 0.121569 0.466667 0.705882 1
57.73199844 570.95202637 462.78900146 0.121569 0.466667 0.705882 1
57.56700134 570.94097900 462.67498779 0.121569 0.466667 0.705882 1
57.57400131 570.95697021 462.81600952 0.121569 0.466667 0.705882 1
57.52500153 570.95501709 462.83599854 0.121569 0.466667 0.705882 1
57.41500092 570.91699219 462.93200684 0.121569 0.466667 0.705882 1
57.52399826 570.95300293 462.87899780 0.121569 0.466667 0.705882 1
57.58900070 570.94097900 462.65798950 0.121569 0.466667 0.705882 1
57.58000183 570.94799805 462.98699951 0.121569 0.466667 0.705882 1
57.98199844 571.36499023 462.09500122 0.121569 0.466667 0.705882 1
57.84000015 571.14398193 462.24099731 0.121569 0.466667 0.705882 1
57.56399918 570.93499756 462.99200439 0.121569 0.466667 0.705882 1
57.96699905 571.33001709 462.12200928 0.121569 0.466667 0.705882 1
57.52799988 570.99902344 462.45300293 0.121569 0.466667 0.705882 1
57.38000107 570.80102539 463.02499390 0.121569 0.466667 0.705882 1
57.41699982 570.70800781 463.01400757 0.121569 0.466667 0.705882 1
57.42499924 570.90502930 463.02301025 0.121569 0.466667 0.705882 1
57.39699936 570.73199463 463.16900635 0.121569 0.466667 0.705882 1
57.37900162 570.80200195 463.10699463 0.121569 0.466667 0.705882 1
57.41400146 570.71398926 463.05099487 0.121569 0.466667 0.705882 1
57.37699890 570.80102539 463.06698608 0.121569 0.466667 0.705882 1
57.39099884 570.84002686 463.00201416 0.121569 0.466667 0.705882 1
57.39799881 570.88098145 463.11599731 0.121569 0.466667 0.705882 1
57.38199997 570.84698486 463.12200928 0.121569 0.466667 0.705882 1
57.38000107 570.84899902 463.03601074 0.121569 0.466667 0.705882 1
57.47000122 570.95800781 463.11199951 0.121569 0.466667 0.705882 1
57.37599945 570.80200195 463.14999390 0.121569 0.466667 0.705882 1
57.38499832 570.84399414 463.21099854 0.121569 0.466667 0.705882 1
57.43500137 570.94500732 463.01901245 0.121569 0.466667 0.705882 1
57.37599945 570.80499268 463.23699951 0.121569 0.466667 0.705882 1
57.43399811 570.94396973 463.10501099 0.121569 0.466667 0.705882 1
57.38000107 570.80297852 463.19500732 0.121569 0.466667 0.705882 1
57.44400024 570.93402100 463.15100098 0.121569 0.466667 0.705882 1
57.38100052 570.84899902 463.16400146 0.121569 0.466667 0.705882 1
57.47399902 570.95599365 463.07101440 0.121569 0.466667 0.705882 1
57.43700027 570.94500732 463.06100464 0.121569 0.466667 0.705882 1
57.43399811 570.72399902 463.37100220 0.121569 0.466667 0.705882 1
57.43500137 570.73297119 463.29998779 0.121569 0.466667 0.705882 1
57.43399811 570.72698975 463.44198608 0.121569 0.466667 0.705882 1
57.38299942 570.84698486 463.25100708 0.121569 0.466667 0.705882 1
57.37699890 570.85302734 463.29000854 0.121569 0.466667 0.705882 1
57.41500092 570.91497803 463.10101318 0.121569 0.466667 0.705882 1
57.38299942 570.79998779 463.28298950 0.121569 0.466667 0.705882 1
57.39400101 570.88702393 463.15499878 0.121569 0.466667 0.705882 1
57.41500092 570.91302490 463.14700317 0.121569 0.466667 0.705882 1
57.36899948 570.80999756 463.40200806 0.121569 0.466667 0.705882 1
57.40000153 570.73101807 463.29901123 0.121569 0.466667 0.705882 1
57.37300110 570.85699463 463.41598511 0.121569 0.466667 0.705882 1
57.38499832 570.89801025 463.36099243 0.121569 0.466667 0.705882 1
57.38399887 570.84399414 463.38198853 0.121569 0.466667 0.705882 1
57.38100052 570.84899902 463.37799072 0.121569 0.466667 0.705882 1
57.36199951 570.81799316 463.44000244 0.121569 0.466667 0.705882 1
57.38499832 570.89398193 463.44900513 0.121569 0.466667 0.705882 1
57.39500046 570.93402100 463.34698486 0.121569 0.466667 0.705882 1
57.38100052 570.89801025 463.40499878 0.121569 0.466667 0.705882 1
57.52799988 570.95202637 463.00900269 0.121569 0.466667 0.705882 1
57.53599930 570.69097900 463.21301270 0.121569 0.466667 0.705882 1
57.47000122 570.96301270 463.49398804 0.121569 0.466667 0.705882 1
57.65299988 570.92498779 463.00201416 0.121569 0.466667 0.705882 1
57.54100037 570.98901367 463.30499268 0.121569 0.466667 0.705882 1
57.39099884 570.79400635 463.53799438 0.121569 0.466667 0.705882 1
57.38399887 570.84899902 463.55200195 0.121569 0.466667 0.705882 1
57.38999939 570.89001465 463.52398682 0.121569 0.466667 0.705882 1
57.39599991 570.93597412 463.38900757 0.121569 0.466667 0.705882 1
57.38999939 570.88897705 463.53900146 0.121569 0.466667 0.705882 1
57.54899979 570.98101807 463.35198975 0.121569 0.466667 0.705882 1
57.55500031 570.97497559 463.39898682 0.121569 0.466667 0.705882 1
57.37500000 570.80603027 463.58099365 0.121569 0.466667 0.705882 1
57.38700104 570.89398193 463.62298584 0.121569 0.466667 0.705882 1
57.65399933 570.84002686 463.38500977 0.121569 0.466667 0.705882 1
57.40599823 570.92199707 463.61401367 0.121569 0.466667 0.705882 1
57.38100052 570.84899902 463.59399414 0.121569 0.466667 0.705882 1
57.38700104 570.89501953 463.57901001 0.121569 0.466667 0.705882 1
57.40900040 570.91998291 463.57000732 0.121569 0.466667 0.705882 1
57.37599945 570.85400391 463.63598633 0.121569 0.466667 0.705882 1
57.47200012 570.96099854 463.53799438 0.121569 0.466667 0.705882 1
57.40900040 570.76000977 463.72100830 0.121569 0.466667 0.705882 1
57.43399811 570.94702148 463.57598877 0.121569 0.466667 0.705882 1
57.37799835 570.85601807 463.72198486 0.121569 0.466667 0.705882 1
57.38399887 570.84399414 463.73901367 0.121569 0.466667 0.705882 1
57.37699890 570.83300781 463.69198608 0.121569 0.466667 0.705882 1
57.36399841 570.81500244 463.70401001 0.121569 0.466667 0.705882 1
57.36700058 570.81701660 463.65899658 0.121569 0.466667 0.705882 1
57.43500137 570.73498535 463.79699707 0.121569 0.466667 0.705882 1
57.36600113 570.81402588 463.74700928 0.121569 0.466667 0.705882 1
57.45999908 570.69299316 463.89300537 0.121569 0.466667 0.705882 1
57.40399933 570.92700195 463.69799805 0.121569 0.466667 0.705882 1
57.38000107 570.80102539 463.53698730 0.121569 0.466667 0.705882 1
57.37500000 570.80603027 463.62200928 0.121569 0.466667 0.705882 1
57.42100143 570.71899414 463.91299438 0.121569 0.466667 0.705882 1
57.43600082 570.94598389 463.53298950 0.121569 0.466667 0.705882 1
57.37699890 570.80700684 463.79800415 0.121569 0.466667 0.705882 1
57.21400070 570.97198486 463.90100098 0.121569 0.466667 0.705882 1
57.36899948 570.80999756 463.83700562 0.121569 0.466667 0.705882 1
57.22700119 570.96002197 463.95300293 0.121569 0.466667 0.705882 1
57.44599915 570.98498535 463.87100220 0.121569 0.466667 0.705882 1
57.36899948 570.81201172 463.88101196 0.121569 0.466667 0.705882 1
57.38199997 570.84997559 463.98800659 0.121569 0.466667 0.705882 1
57.35200119 570.88000488 463.87899780 0.121569 0.466667 0.705882 1
57.25500107 570.92999268 463.88598633 0.121569 0.466667 0.705882 1
57.49100113 570.98999023 463.84399414 0.121569 0.466667 0.705882 1
57.49200058 570.98901367 463.89001465 0.121569 0.466667 0.705882 1
57.51200104 570.96801758 463.51000977 0.121569 0.466667 0.705882 1
57.57799911 570.95001221 463.63101196 0.121569 0.466667 0.705882 1
57.50600052 570.71801758 463.73001099 0.121569 0.466667 0.705882 1
57.50500107 570.97497559 463.59201050 0.121569 0.466667 0.705882 1
57.55099869 570.97802734 463.83099365 0.121569 0.466667 0.705882 1
57.55699921 570.97302246 463.88000488 0.121569 0.466667 0.705882 1
56.99499893 571.78802490 463.24499512 0.121569 0.466667 0.705882 1
57.54299927 570.98699951 463.91299438 0.121569 0.466667 0.705882 1
57.58100128 570.96197510 463.92401123 0.121569 0.466667 0.705882 1
57.50500107 570.97802734 463.54800415 0.121569 0.466667 0.705882 1
57.09999847 571.62097168 463.31500244 0.121569 0.466667 0.705882 1
57.06200027 571.56597900 463.32400513 0.121569 0.466667 0.705882 1
57.06000137 571.67700195 463.24499512 0.121569 0.466667 0.705882 1
57.11899948 571.55999756 463.31399536 0.121569 0.466667 0.705882 1
57.08200073 571.69000244 463.32101440 0.121569 0.466667 0.705882 1
57.67900085 571.74401855 463.21798706 0.121569 0.466667 0.705882 1
57.75600052 571.76800537 463.19400024 0.121569 0.466667 0.705882 1
57.20899963 572.04901123 460.75698853 0.121569 0.466667 0.705882 1
57.17800140 572.01397705 460.76599121 0.121569 0.466667 0.705882 1
57.20800018 572.03302002 460.75698853 0.121569 0.466667 0.705882 1
56.75000000 572.26397705 463.22698975 0.121569 0.466667 0.705882 1
56.09899902 572.73999023 463.16699219 0.121569 0.466667 0.705882 1
56.31100082 572.71099854 463.17199707 0.121569 0.466667 0.705882 1
56.30899811 572.72302246 463.15100098 0.121569 0.466667 0.705882 1
56.10800171 572.94396973 463.08599854 0.121569 0.466667 0.705882 1
56.12599945 572.94097900 463.10400391 0.121569 0.466667 0.705882 1
56.31100082 572.75000000 463.14801025 0.121569 0.466667 0.705882 1
56.31100082 572.75000000 463.15701294 0.121569 0.466667 0.705882 1
56.41199875 572.90197754 463.72799683 0.121569 0.466667 0.705882 1
56.54100037 572.63098145 463.58599854 0.121569 0.466667 0.705882 1
56.48400116 572.68798828 463.82901001 0.121569 0.466667 0.705882 1
56.58700180 572.61999512 463.55700684 0.121569 0.466667 0.705882 1
56.56700134 572.64001465 463.57998657 0.121569 0.466667 0.705882 1
56.56900024 572.64599609 463.58898926 0.121569 0.466667 0.705882 1
57.20000076 572.71997070 463.46899414 0.121569 0.466667 0.705882 1
56.02399826 573.06597900 463.17999268 0.121569 0.466667 0.705882 1
56.58700180 572.63299561 463.55999756 0.121569 0.466667 0.705882 1
56.14500046 573.04602051 463.60198975 0.121569 0.466667 0.705882 1
56.42200089 573.12597656 463.67401123 0.121569 0.466667 0.705882 1
56.38499832 573.11700439 463.67001343 0.121569 0.466667 0.705882 1
56.89599991 573.28497314 463.50299072 0.121569 0.466667 0.705882 1
57.17900085 573.61401367 463.27899170 0.121569 0.466667 0.705882 1
56.37900162 569.96197510 464.55999756 0.121569 0.466667 0.705882 1
56.51599884 570.91198730 464.48498535 0.121569 0.466667 0.705882 1
56.98799896 570.65600586 464.41198730 0.121569 0.466667 0.705882 1
56.43199921 570.90399170 464.50698853 0.121569 0.466667 0.705882 1
56.96099854 570.63000488 464.41598511 0.121569 0.466667 0.705882 1
56.47200012 570.90802002 464.51098633 0.121569 0.466667 0.705882 1
57.43600082 570.72998047 464.15301514 0.121569 0.466667 0.705882 1
57.38399887 570.79797363 464.15798950 0.121569 0.466667 0.705882 1
57.42200089 570.70397949 464.24099731 0.121569 0.466667 0.705882 1
57.39400101 570.83801270 464.22000122 0.121569 0.466667 0.705882 1
57.43500137 570.72399902 464.00900269 0.121569 0.466667 0.705882 1
57.49000168 570.94097900 464.16699219 0.121569 0.466667 0.705882 1
57.16500092 570.66998291 464.27600098 0.121569 0.466667 0.705882 1
57.39099884 570.83801270 464.17599487 0.121569 0.466667 0.705882 1
57.47000122 570.70202637 464.40100098 0.121569 0.466667 0.705882 1
57.40399933 570.87597656 464.25201416 0.121569 0.466667 0.705882 1
57.45800018 570.92199707 464.25201416 0.121569 0.466667 0.705882 1
57.38899994 570.80499268 464.32101440 0.121569 0.466667 0.705882 1
57.45700073 570.92199707 464.47799683 0.121569 0.466667 0.705882 1
57.45500183 570.92602539 464.42898560 0.121569 0.466667 0.705882 1
57.39599991 570.78302002 464.43600464 0.121569 0.466667 0.705882 1
57.44800186 570.93103027 464.37899780 0.121569 0.466667 0.705882 1
57.39099884 570.68798828 464.35101318 0.121569 0.466667 0.705882 1
57.53900146 570.66998291 464.20401001 0.121569 0.466667 0.705882 1
57.49399948 570.93701172 464.25799561 0.121569 0.466667 0.705882 1
57.52899933 570.95001221 464.13800049 0.121569 0.466667 0.705882 1
57.53599930 570.67797852 464.07699585 0.121569 0.466667 0.705882 1
57.42699814 570.81799316 464.42401123 0.121569 0.466667 0.705882 1
57.60400009 570.92901611 464.26998901 0.121569 0.466667 0.705882 1
57.50000000 570.69702148 464.43600464 0.121569 0.466667 0.705882 1
57.18799973 570.17498779 464.89999390 0.121569 0.466667 0.705882 1
57.49000168 570.94097900 464.30200195 0.121569 0.466667 0.705882 1
57.18600082 570.17297363 464.94900513 0.121569 0.466667 0.705882 1
57.18700027 570.16497803 464.96301270 0.121569 0.466667 0.705882 1
57.45999908 570.92102051 464.52200317 0.121569 0.466667 0.705882 1
57.53599930 570.69799805 464.45199585 0.121569 0.466667 0.705882 1
57.48799896 570.94299316 464.52700806 0.121569 0.466667 0.705882 1
57.43700027 570.89398193 464.51998901 0.121569 0.466667 0.705882 1
57.41299820 570.87097168 464.71099854 0.121569 0.466667 0.705882 1
57.42399979 570.90502930 464.64700317 0.121569 0.466667 0.705882 1
57.40800095 570.82501221 464.59201050 0.121569 0.466667 0.705882 1
57.45199966 570.93103027 464.74301147 0.121569 0.466667 0.705882 1
57.42699814 570.90600586 464.73999023 0.121569 0.466667 0.705882 1
57.41699982 570.86700439 464.75900269 0.121569 0.466667 0.705882 1
57.39899826 570.83398438 464.81698608 0.121569 0.466667 0.705882 1
57.41799927 570.91302490 464.87200928 0.121569 0.466667 0.705882 1
57.41600037 570.86798096 464.85101318 0.121569 0.466667 0.705882 1
57.42499924 570.90802002 464.78298950 0.121569 0.466667 0.705882 1
57.42499924 570.90802002 464.92199707 0.121569 0.466667 0.705882 1
57.44200134 570.93902588 464.96499634 0.121569 0.466667 0.705882 1
57.41400146 570.86798096 464.80300903 0.121569 0.466667 0.705882 1
57.50600052 570.72698975 464.72198486 0.121569 0.466667 0.705882 1
57.42499924 570.90399170 464.83300781 0.121569 0.466667 0.705882 1
57.53699875 570.72802734 464.69601440 0.121569 0.466667 0.705882 1
57.40299988 570.83197021 464.90798950 0.121569 0.466667 0.705882 1
56.59500122 571.46801758 464.74099731 0.121569 0.466667 0.705882 1
57.46099854 570.51000977 465.02099609 0.121569 0.466667 0.705882 1
57.39500046 570.83801270 465.08898926 0.121569 0.466667 0.705882 1
57.39799881 570.88397217 465.11599731 0.121569 0.466667 0.705882 1
57.39400101 570.88702393 465.20800781 0.121569 0.466667 0.705882 1
57.45199966 570.97998047 465.18798828 0.121569 0.466667 0.705882 1
57.43799973 570.97497559 465.13598633 0.121569 0.466667 0.705882 1
57.41199875 570.92199707 465.09698486 0.121569 0.466667 0.705882 1
57.39400101 570.93798828 465.27099609 0.121569 0.466667 0.705882 1
57.43999863 570.98999023 465.36599731 0.121569 0.466667 0.705882 1
57.39799881 570.88598633 465.25500488 0.121569 0.466667 0.705882 1
57.41899872 570.96099854 465.41699219 0.121569 0.466667 0.705882 1
57.40999985 570.91998291 465.42498779 0.121569 0.466667 0.705882 1
57.42800140 570.95300293 465.09298706 0.121569 0.466667 0.705882 1
57.40399933 570.87902832 465.45001221 0.121569 0.466667 0.705882 1
57.40999985 570.87500000 465.40600586 0.121569 0.466667 0.705882 1
57.43999863 570.99200439 465.41198730 0.121569 0.466667 0.705882 1
57.40000153 570.88299561 465.35400391 0.121569 0.466667 0.705882 1
57.43999863 570.98498535 465.46099854 0.121569 0.466667 0.705882 1
57.51699829 570.78198242 465.29199219 0.121569 0.466667 0.705882 1
57.43600082 570.82299805 465.56201172 0.121569 0.466667 0.705882 1
57.39400101 570.88897705 465.61401367 0.121569 0.466667 0.705882 1
57.45299911 570.83599854 465.50601196 0.121569 0.466667 0.705882 1
57.38800049 570.89501953 465.67700195 0.121569 0.466667 0.705882 1
57.37500000 570.95697021 465.87500000 0.121569 0.466667 0.705882 1
57.45100021 570.82800293 465.57901001 0.121569 0.466667 0.705882 1
57.38999939 570.99401855 465.91598511 0.121569 0.466667 0.705882 1
57.39199829 570.99200439 465.96701050 0.121569 0.466667 0.705882 1
57.46200180 571.02197266 465.31900024 0.121569 0.466667 0.705882 1
57.47499847 571.00701904 465.14401245 0.121569 0.466667 0.705882 1
57.38899994 570.89501953 465.96798706 0.121569 0.466667 0.705882 1
57.38800049 570.94299316 465.98199463 0.121569 0.466667 0.705882 1
57.55400085 571.02801514 465.36499023 0.121569 0.466667 0.705882 1
57.61899948 571.01098633 465.25299072 0.121569 0.466667 0.705882 1
57.61000061 571.02301025 465.38500977 0.121569 0.466667 0.705882 1
57.62099838 571.01000977 465.34698486 0.121569 0.466667 0.705882 1
57.50199890 571.03198242 465.33700562 0.121569 0.466667 0.705882 1
57.55199814 571.03002930 465.27099609 0.121569 0.466667 0.705882 1
57.62300110 571.00897217 465.29998779 0.121569 0.466667 0.705882 1
57.47299957 571.01202393 465.42300415 0.121569 0.466667 0.705882 1
57.55099869 571.02899170 465.31698608 0.121569 0.466667 0.705882 1
57.43199921 571.00299072 465.59399414 0.121569 0.466667 0.705882 1
57.49200058 571.03802490 465.61599731 0.121569 0.466667 0.705882 1
57.61600113 571.01898193 465.43798828 0.121569 0.466667 0.705882 1
57.45299911 571.03002930 465.64300537 0.121569 0.466667 0.705882 1
57.45500183 571.02697754 465.60101318 0.121569 0.466667 0.705882 1
57.55599976 571.02600098 465.41400146 0.121569 0.466667 0.705882 1
57.44499969 571.03802490 465.92498779 0.121569 0.466667 0.705882 1
57.48199844 571.04400635 465.91198730 0.121569 0.466667 0.705882 1
57.47299957 571.06201172 465.93200684 0.121569 0.466667 0.705882 1
57.48099899 571.05200195 465.98999023 0.121569 0.466667 0.705882 1
57.44900131 571.03399658 465.83300781 0.121569 0.466667 0.705882 1
57.62099838 571.01300049 465.65200806 0.121569 0.466667 0.705882 1
57.61100006 571.07000732 465.80899048 0.121569 0.466667 0.705882 1
57.62300110 571.01501465 465.97198486 0.121569 0.466667 0.705882 1
57.40599823 571.02697754 465.95901489 0.121569 0.466667 0.705882 1
57.63399887 571.03399658 465.80099487 0.121569 0.466667 0.705882 1
57.57799911 571.05297852 465.93399048 0.121569 0.466667 0.705882 1
57.99599838 569.89697266 467.57598877 0.121569 0.466667 0.705882 1
57.99800110 569.89501953 467.63101196 0.121569 0.466667 0.705882 1
57.98500061 569.85797119 467.58401489 0.121569 0.466667 0.705882 1
57.45199966 570.83398438 466.07901001 0.121569 0.466667 0.705882 1
57.45800018 570.85498047 466.22198486 0.121569 0.466667 0.705882 1
57.32500076 570.90802002 466.12799072 0.121569 0.466667 0.705882 1
57.36500168 570.91998291 466.13800049 0.121569 0.466667 0.705882 1
57.38800049 570.99401855 466.10998535 0.121569 0.466667 0.705882 1
57.39699936 570.92401123 466.16598511 0.121569 0.466667 0.705882 1
57.37400055 570.96002197 466.21099854 0.121569 0.466667 0.705882 1
57.39500046 570.94500732 466.15499878 0.121569 0.466667 0.705882 1
57.45700073 570.84997559 466.29400635 0.121569 0.466667 0.705882 1
57.46799850 570.84698486 466.31100464 0.121569 0.466667 0.705882 1
57.39199829 570.99102783 466.06201172 0.121569 0.466667 0.705882 1
57.38700104 570.99499512 466.45498657 0.121569 0.466667 0.705882 1
57.38399887 571.00000000 466.25201416 0.121569 0.466667 0.705882 1
57.36899948 570.96301270 466.65600586 0.121569 0.466667 0.705882 1
57.37699890 570.95697021 466.16699219 0.121569 0.466667 0.705882 1
57.47499847 570.84899902 466.68701172 0.121569 0.466667 0.705882 1
57.46300125 570.88201904 466.72900391 0.121569 0.466667 0.705882 1
57.45999908 570.87799072 466.79901123 0.121569 0.466667 0.705882 1
57.38800049 570.94097900 466.78601074 0.121569 0.466667 0.705882 1
57.36500168 570.96899414 466.80398560 0.121569 0.466667 0.705882 1
57.36600113 570.96899414 466.75399780 0.121569 0.466667 0.705882 1
57.36899948 570.96697998 466.70498657 0.121569 0.466667 0.705882 1
57.37599945 570.90802002 466.84799194 0.121569 0.466667 0.705882 1
57.35100174 570.98297119 466.99499512 0.121569 0.466667 0.705882 1
57.49100113 570.85998535 466.81100464 0.121569 0.466667 0.705882 1
57.40499878 571.02801514 466.00500488 0.121569 0.466667 0.705882 1
57.58700180 570.92102051 466.79901123 0.121569 0.466667 0.705882 1
57.40700150 571.02697754 466.10598755 0.121569 0.466667 0.705882 1
57.43399811 570.91198730 466.82400513 0.121569 0.466667 0.705882 1
57.44300079 571.03802490 466.02398682 0.121569 0.466667 0.705882 1
57.38000107 571.00097656 466.29998779 0.121569 0.466667 0.705882 1
57.40800095 571.02697754 466.05499268 0.121569 0.466667 0.705882 1
57.39799881 571.08697510 466.37200928 0.121569 0.466667 0.705882 1
57.44800186 571.08697510 466.45001221 0.121569 0.466667 0.705882 1
57.50199890 571.08099365 466.23699951 0.121569 0.466667 0.705882 1
57.53499985 571.04998779 466.01800537 0.121569 0.466667 0.705882 1
57.45199966 571.08300781 466.40600586 0.121569 0.466667 0.705882 1
57.53300095 571.73199463 466.14801025 0.121569 0.466667 0.705882 1
57.36199951 571.02197266 466.88299561 0.121569 0.466667 0.705882 1
57.47100067 571.11499023 466.80398560 0.121569 0.466667 0.705882 1
57.45899963 571.12298584 466.74398804 0.121569 0.466667 0.705882 1
57.36000061 571.02398682 466.82998657 0.121569 0.466667 0.705882 1
57.50999832 571.12597656 466.76400757 0.121569 0.466667 0.705882 1
57.50899887 571.12402344 466.96398926 0.121569 0.466667 0.705882 1
57.40000153 571.08599854 466.67401123 0.121569 0.466667 0.705882 1
57.50899887 571.12402344 466.71301270 0.121569 0.466667 0.705882 1
57.51900101 571.11700439 466.82101440 0.121569 0.466667 0.705882 1
57.34600067 570.98901367 467.04098511 0.121569 0.466667 0.705882 1
57.50500107 571.12902832 466.91400146 0.121569 0.466667 0.705882 1
57.17699814 570.39697266 467.16799927 0.121569 0.466667 0.705882 1
57.33700180 570.99798584 467.18701172 0.121569 0.466667 0.705882 1
57.46400070 570.90100098 467.16000366 0.121569 0.466667 0.705882 1
57.34700012 570.98797607 467.14700317 0.121569 0.466667 0.705882 1
57.38399887 570.90002441 467.00900269 0.121569 0.466667 0.705882 1
57.46599960 570.89898682 467.23400879 0.121569 0.466667 0.705882 1
57.33800125 570.99798584 467.44799805 0.121569 0.466667 0.705882 1
57.34999847 570.98498535 467.09399414 0.121569 0.466667 0.705882 1
57.35699844 570.00500488 467.60800171 0.121569 0.466667 0.705882 1
57.52000046 570.88397217 467.05700684 0.121569 0.466667 0.705882 1
57.37099838 570.02801514 467.70098877 0.121569 0.466667 0.705882 1
57.99399948 570.22399902 467.73999023 0.121569 0.466667 0.705882 1
57.34600067 570.98699951 467.61599731 0.121569 0.466667 0.705882 1
57.33700180 570.99902344 467.92700195 0.121569 0.466667 0.705882 1
57.40100098 570.94396973 467.53799438 0.121569 0.466667 0.705882 1
57.35900116 571.07397461 467.11401367 0.121569 0.466667 0.705882 1
57.36399841 571.07098389 467.06799316 0.121569 0.466667 0.705882 1
57.35200119 571.03002930 467.13101196 0.121569 0.466667 0.705882 1
57.35900116 571.07800293 467.21301270 0.121569 0.466667 0.705882 1
57.37699890 571.10797119 467.16000366 0.121569 0.466667 0.705882 1
57.38499832 571.10101318 467.22000122 0.121569 0.466667 0.705882 1
57.39099884 571.09399414 467.15399170 0.121569 0.466667 0.705882 1
57.43600082 571.19702148 467.15100098 0.121569 0.466667 0.705882 1
57.47999954 571.15100098 467.29998779 0.121569 0.466667 0.705882 1
57.40399933 571.13000488 467.17001343 0.121569 0.466667 0.705882 1
57.40999985 571.12597656 467.22601318 0.121569 0.466667 0.705882 1
57.36700058 571.11798096 467.35998535 0.121569 0.466667 0.705882 1
57.34899902 571.08398438 467.36099243 0.121569 0.466667 0.705882 1
57.47800064 571.15600586 467.39999390 0.121569 0.466667 0.705882 1
57.50799942 571.12597656 467.01400757 0.121569 0.466667 0.705882 1
57.33000183 571.05499268 467.46798706 0.121569 0.466667 0.705882 1
57.36500168 571.12200928 467.45999146 0.121569 0.466667 0.705882 1
57.50199890 571.13201904 467.26901245 0.121569 0.466667 0.705882 1
57.34700012 571.08801270 467.56698608 0.121569 0.466667 0.705882 1
57.34299850 571.03997803 467.59100342 0.121569 0.466667 0.705882 1
57.34700012 571.09100342 467.62100220 0.121569 0.466667 0.705882 1
57.36100006 571.12402344 467.56298828 0.121569 0.466667 0.705882 1
57.33300018 571.05401611 467.52398682 0.121569 0.466667 0.705882 1
57.36299896 571.07299805 467.53799438 0.121569 0.466667 0.705882 1
57.39199829 571.14001465 467.63000488 0.121569 0.466667 0.705882 1
57.37200165 571.11297607 467.62500000 0.121569 0.466667 0.705882 1
57.44699860 571.18902588 467.73999023 0.121569 0.466667 0.705882 1
57.32500076 571.01300049 467.85800171 0.121569 0.466667 0.705882 1
57.33000183 571.10400391 467.97900391 0.121569 0.466667 0.705882 1
57.33599854 571.00000000 467.76098633 0.121569 0.466667 0.705882 1
57.34199905 571.14599609 467.91299438 0.121569 0.466667 0.705882 1
57.32400131 571.05999756 467.99499512 0.121569 0.466667 0.705882 1
57.53300095 571.10101318 467.90200806 0.121569 0.466667 0.705882 1
57.59099960 571.77600098 467.97799683 0.121569 0.466667 0.705882 1
57.37099838 570.97100830 468.12200928 0.121569 0.466667 0.705882 1
57.25199890 570.92199707 468.58401489 0.121569 0.466667 0.705882 1
57.63499832 570.49200439 468.53100586 0.121569 0.466667 0.705882 1
57.32500076 571.00897217 468.07400513 0.121569 0.466667 0.705882 1
57.32600021 571.06201172 468.04998779 0.121569 0.466667 0.705882 1
57.33499908 571.00299072 468.02899170 0.121569 0.466667 0.705882 1
57.46099854 571.17498779 468.01998901 0.121569 0.466667 0.705882 1
57.37400055 571.16101074 468.03698730 0.121569 0.466667 0.705882 1
57.32199860 571.01202393 468.12600708 0.121569 0.466667 0.705882 1
57.41299820 571.17401123 468.05398560 0.121569 0.466667 0.705882 1
57.45999908 571.17401123 468.07598877 0.121569 0.466667 0.705882 1
57.32500076 571.11297607 468.13198853 0.121569 0.466667 0.705882 1
57.37200165 571.16302490 468.19601440 0.121569 0.466667 0.705882 1
57.37099838 571.16699219 468.13900757 0.121569 0.466667 0.705882 1
57.34500122 571.04199219 468.22500610 0.121569 0.466667 0.705882 1
57.30899811 571.07598877 468.30801392 0.121569 0.466667 0.705882 1
57.31600189 571.11798096 468.34600830 0.121569 0.466667 0.705882 1
57.41199875 571.17498779 468.16198730 0.121569 0.466667 0.705882 1
57.33300018 571.15502930 468.33898926 0.121569 0.466667 0.705882 1
57.32500076 571.11297607 468.29800415 0.121569 0.466667 0.705882 1
57.41199875 571.17297363 468.10998535 0.121569 0.466667 0.705882 1
57.32799911 571.05798340 468.38198853 0.121569 0.466667 0.705882 1
57.34099960 571.03002930 468.07699585 0.121569 0.466667 0.705882 1
57.32600021 571.10900879 468.08099365 0.121569 0.466667 0.705882 1
57.47499847 571.01300049 468.41799927 0.121569 0.466667 0.705882 1
57.40900040 571.00299072 468.48599243 0.121569 0.466667 0.705882 1
57.31999969 571.11602783 468.40499878 0.121569 0.466667 0.705882 1
57.32400131 571.06402588 468.10198975 0.121569 0.466667 0.705882 1
57.32699966 571.05902100 468.43600464 0.121569 0.466667 0.705882 1
57.60100174 571.76599121 468.04299927 0.121569 0.466667 0.705882 1
57.49800110 571.23602295 468.77899170 0.121569 0.466667 0.705882 1
57.51499939 571.26702881 468.64700317 0.121569 0.466667 0.705882 1
56.92499924 571.98999023 469.43301392 0.121569 0.466667 0.705882 1
57.39899826 571.04602051 469.18499756 0.121569 0.466667 0.705882 1
57.36000061 571.22497559 469.22799683 0.121569 0.466667 0.705882 1
57.32899857 571.20800781 469.09698486 0.121569 0.466667 0.705882 1
57.34999847 571.08001709 469.03399658 0.121569 0.466667 0.705882 1
57.32600021 571.21002197 469.15399170 0.121569 0.466667 0.705882 1
57.32799911 571.20599365 469.21398926 0.121569 0.466667 0.705882 1
57.31399918 571.17297363 469.27801514 0.121569 0.466667 0.705882 1
57.45199966 571.03698730 469.36898804 0.121569 0.466667 0.705882 1
57.31399918 571.17297363 469.16101074 0.121569 0.466667 0.705882 1
57.30500031 571.18200684 469.21200562 0.121569 0.466667 0.705882 1
57.33000183 571.20599365 469.44900513 0.121569 0.466667 0.705882 1
57.33800125 571.19799805 469.33999634 0.121569 0.466667 0.705882 1
57.29800034 571.18701172 469.73098755 0.121569 0.466667 0.705882 1
57.33700180 571.24700928 469.73001099 0.121569 0.466667 0.705882 1
57.32400131 571.21398926 469.73498535 0.121569 0.466667 0.705882 1
57.26100159 571.12799072 469.73300171 0.121569 0.466667 0.705882 1
57.34500122 571.23999023 469.79699707 0.121569 0.466667 0.705882 1
57.30300140 571.18499756 469.85101318 0.121569 0.466667 0.705882 1
57.31999969 571.16802979 469.99200439 0.121569 0.466667 0.705882 1
